# 3D point list with one line of data per point:
#   POINT3D_ID, X, Y, Z, R, G, B, ERROR, TRACK[] as (IMAGE_ID, POINT2D_IDX)
# Number of points: 107, mean track length: 3.3644859813084111
59 -0.21437854458522149 0.98674411506809689 13.668464552721211 170 140 129 0.28789157804466176 94 570 84 276 43 1906
58 0.10516931445959755 0.95980472086768687 13.723765854017582 229 196 185 0.54817810255069432 98 661 84 259 43 1907
57 0.13823219762007191 -0.0085544690818235222 13.625487138127058 219 183 174 0.31125715914703295 98 621 84 255
56 -0.43721535738138656 1.592556725698216 14.170669176592494 180 144 126 0.081131149774946079 98 565 84 190 2 769
55 -1.0026023426339412 0.15670450026408897 14.370952348673327 56 40 43 0.67536342585769715 94 285 84 130 43 1516 23 387 8 1200
54 0.4575489238269107 1.0023225023721363 14.023073315676234 199 165 153 0.67508735689314958 94 99 84 46 43 1532
53 0.89792466920354719 -0.30919406875201993 13.598430956442749 205 187 185 0.70676947463145012 98 284 84 38 20 315
52 0.28029577577997739 -1.1953067456287261 10.97553744054763 250 228 207 0.61712872359488091 98 731 20 674
51 -0.13572625562032134 4.4029604661443331 15.412857999419977 238 183 153 1.1073687861753216 98 729 94 631
50 1.0331071841230026 0.71187018567878846 14.272815177155191 251 200 182 1.3097411592083632 98 727 94 619 84 366 20 664
49 -3.522020511687368 5.4068869331667075 16.67989531336147 237 193 168 0.38837597008866226 98 725 94 606
48 -0.74458681962034967 0.59786578612502406 14.073284009325308 253 207 185 0.046662270671250089 98 721 94 613
47 -0.7464781864832426 -0.11740100736743334 14.4940323977033 72 56 43 0.5452329029308246 98 718 94 612 99 1048
46 0.094358564809154916 2.4595158574556728 13.99064957895326 253 207 187 0.52654018829426463 98 714 94 614 84 351 43 2007
45 -1.2988127036782791 -0.90662417888196334 15.757320274957888 218 172 148 0.33292063766911922 98 711 94 589 99 1041
44 -1.4079791323712847 4.6761699547977758 15.935080155382499 233 187 162 0.4531141639286132 98 704 94 599
43 -1.0641714026976989 2.4358413216928492 14.53054591516643 167 135 114 2.1289274111997667 98 703 94 605
42 2.2515985257026139 1.5605339818898238 16.316539180146041 85 74 70 0.35752677295137736 98 702 94 594
41 1.0371686761518959 1.9058671980431501 14.226490416244237 253 203 178 1.1994714718605737 98 692 94 545 84 282 43 1945 99 1034
40 0.568212849109615 1.7858476185751906 14.111392503859875 179 100 95 1.1406077576338201 98 690 94 579 84 306 92 1245 20 617 99 1024
39 -0.8153838537218987 1.9386605174145131 14.441600637494144 241 194 164 1.3707896756512199 98 689 94 577 84 280
38 0.41665102580556201 0.79073809905950043 14.164087416369137 198 150 127 1.4191200701185103 98 685 94 571 84 277 94 540 43 1908
37 -0.20152219260566728 0.73162888705305684 13.971631906239889 202 152 129 0.055017565183170136 98 684 94 569
36 0.039510171879026876 -2.5579023292117822 14.612505806915125 142 124 93 0.46653929342395073 98 673 94 483
35 0.09813836274052197 0.94574145870532911 13.600650596820065 254 226 206 1.0437814191745345 98 660 94 541 99 1008 20 582
34 -1.1268553726382575 -0.004846632566775139 14.566695587571372 29 19 14 0.33777478130266453 98 654 94 501 84 254
33 -0.46242876665187499 -0.59165783984167231 14.146049126839891 245 197 174 0.81107915624734983 98 648 94 492 43 1904 84 252
32 2.2260353487493254 1.9541529366575152 16.111743723880906 251 250 250 0.27318959454797281 98 636 94 453
31 0.54238289276824581 0.21776656265678659 14.145282595436013 245 209 183 0.62449862682815083 98 626 94 502 84 227 43 1796 92 962
30 1.3335504427572733 -0.050394575099309932 14.273311218377946 32 25 16 0.53194073202661485 98 623 94 497 43 1798 23 546
13 1.0515324172368481 -0.56217165628506416 14.039536234161787 234 192 167 1.3745736728618383 98 529 94 283 43 1665 92 957 20 448 23 374
12 0.62062560331941508 2.9760852373028639 14.752853154915297 191 158 136 0.64591746398885053 98 502 94 411 92 997 23 506
11 -0.62313407100484042 1.942935625674219 14.786967604241585 230 184 160 1.0829432922684177 94 404 92 1081 20 482 8 1346
10 -0.56507423856569539 -0.0853914969598846 14.213545578110766 32 21 19 0.65551970672505433 98 477 94 374 84 124
9 -0.93097013720044819 0.023789749560777142 14.451779865223848 184 177 170 0.67744916477829009 98 476 94 284 43 1259 23 379 20 319 8 1199 2 702 99 802
8 1.5087423841794452 3.0226696713497274 16.290037618552965 186 159 142 1.5962896263935789 98 435 94 326
7 -2.11970814612731 4.8980852813593572 16.402921865538847 27 29 43 0.24275098380487811 98 353 94 205
6 -0.36408295408350017 2.037245928702355 14.106856175401489 215 168 145 0.82700176516355695 98 339 94 163
5 -0.12083793872217483 1.5848557808854677 13.844405458638123 198 126 119 0.89052449599649541 98 334 94 126
4 2.3155548591677575 1.3374063701758814 16.501248705115646 82 76 76 0.24164171807283893 98 322 94 129
3 1.1922162603144177 0.12802970571221803 14.143132036022177 125 79 66 0.7281717236701053 98 296 94 51 92 499 20 165
2 -0.52470307549158901 0.026604793727026208 14.363911586740919 219 196 187 0.92565266822592163 98 291 94 48 43 1261 20 320 23 383 71 767 3 469 92 765 2 704
1 -0.51469527205993471 0.032906653574152747 14.285883615257605 219 196 187 0.43497156267257514 98 290 94 47 43 1260
14 1.3109079886375039 -0.51086259110693322 13.540528471788861 110 73 51 1.0916904092766355 98 530 94 373 20 449 99 860 3 834 2 734
15 1.3092200824389022 -0.50572448773078005 13.571742859008445 110 73 51 1.275045403689532 98 531 94 372 20 450 99 859
16 2.1939836205476055 1.3169812638021572 16.576422132499403 191 190 188 0.34052111581811229 98 562 94 398
17 2.3290517675355558 1.7692652051436761 16.463913464868522 88 83 80 0.20002434770724781 98 564 94 309
18 -0.49154471234219427 1.7636049607436552 14.160440655232327 126 66 61 1.1623609485821522 98 567 94 452 2 808
81 0.42508131394791226 1.0082020924822708 13.714940245177312 219 173 150 0.95447266310381973 98 494 20 412 99 875 23 393 8 1340 71 961 3 849
22 0.1804907874719105 2.0637358042575533 13.98588052280475 208 144 135 0.55252161907022301 98 571 94 316 23 457
85 0.082709361190869149 0.94221780876770189 13.676206543446561 243 200 183 1.1050997761326844 92 1181 20 581 23 607 71 1102 3 1003
26 1.6898921514891925 -1.7812585690320375 15.669829437069209 156 129 105 0.63696759716978457 98 606 94 431
88 1.0509473460475678 0.0080018727362174569 15.681105240907625 168 142 130 0.56892074867098763 98 720 20 662 99 1042
29 1.3137314977599441 -0.033392385810133526 14.234575437127075 32 25 16 1.1431211773978711 98 622 94 498 43 1797 20 579 92 1178 23 547 3 926 2 794
89 -0.2397644165478684 0.043473396056719363 13.922380466144965 248 231 218 0.35155033605562103 98 293 99 705
90 -0.24910930579492416 0.98921847730963264 14.75135443775185 237 212 192 2.1194057116451526 98 156 99 714 2 581
91 -0.24457244259755423 1.0564882145383492 13.975109685155122 234 209 189 0.23660735588665116 98 420 99 872
93 -1.2149752784871777 -0.60760662774607122 15.391944972461326 234 204 180 0.87557923585120445 98 528 99 952 2 756
94 -0.49110695693312467 1.7124670001687785 14.053339113754461 145 87 77 0.92104533539330513 20 527 98 566 99 966 23 504 2 807
95 -0.95064882871612266 -0.064389665188405526 14.451930995161138 26 21 25 0.75332763260906521 20 406 23 290 8 990 71 542
96 0.83384051168279849 1.8381542402213633 14.021897471766634 204 163 157 0.70624371316700396 94 317 23 461 8 1348
99 0.00039957264227226359 1.9094956912021901 14.031129829486442 246 200 201 0.8692290556513711 20 531 99 927 23 455 98 569 94 405 84 145 92 982 8 1220 71 975 3 904 2 777
87 1.0509473460475678 0.0080018727362174569 15.681105240907625 168 142 130 0.56892074867098763 98 719 20 661 99 1043
28 1.2447372413054199 -0.32159376728839084 13.976343533220314 215 182 165 0.87130542144338086 98 617 94 496
116 -1.1162600685617035 -0.32804358770297509 14.875224763548449 206 165 147 0.96892867584250242 98 615 2 791
103 0.36233352218178327 0.65589915719121505 13.549890182371477 163 105 83 1.0518519062028859 23 641 71 1139
86 0.10439626847497319 2.4505941868474213 13.968952188931954 225 188 171 0.63821692737925395 92 1275 20 653 99 1044
27 -1.2898675008588874 -0.62395133973793959 13.50861953563988 176 145 127 0.93946245522871497 98 612 94 567
115 -0.58898800136151219 1.633410584429986 13.47171635628022 209 165 141 0.96238339747361823 98 498 2 772
102 -0.18884339771440489 0.64871157769780563 13.683910560682872 195 139 116 0.21684180420998961 23 639 71 1138
84 -0.74053182513521942 -0.010767910788505241 14.469425347155745 38 40 35 0.76276098342860477 98 655 20 578 99 985 23 594 8 1521 92 1173
25 2.5454450045095918 1.7415877314228976 16.589837261805229 249 249 249 0.27692589487380792 98 598 94 399
113 -0.45377352006761906 1.055231925606777 14.001354932075985 213 168 149 0.70778726512954515 98 561 2 712
100 0.086840189949268398 0.013730994539601265 13.784514661162952 229 193 175 1.0544366704695161 20 599 23 638 8 1524 94 495 43 1864 92 1174 71 1099
83 1.3879013758004488 0.16594935204868477 14.304738031725881 196 159 133 1.069859872447392 92 1073 20 521 3 889
24 1.6856782934203889 5.0384747175463724 16.305860040225802 51 62 154 0.69944475049220656 98 576 94 207
112 -0.60354341294710023 1.8496413683460089 13.489199518874084 188 141 123 1.0163495885467437 98 338 2 675
82 0.36226656284163772 0.038301904930786432 14.241008962225573 172 123 94 0.072459485167259752 98 542 20 467
23 1.5262614555763034 4.9583768149587906 16.40590099569123 42 28 28 0.33809079099562056 98 575 94 415
111 -0.32521605842276496 1.71984790067007 13.78190364523819 192 118 117 0.6611459863757374 98 429 2 671
109 0.7953530115476205 0.095094287461365654 14.836988736210229 181 158 142 0.5523654482159982 98 400 2 653
107 -0.88493192292905953 0.1465125509552801 14.940908306679763 46 43 34 0.35481225367751545 98 289 2 562
106 0.74304253986721247 0.014239913737893553 14.679238952952518 53 21 11 0.49497091974305374 98 398 2 554
104 0.36233352218178327 0.65589915719121505 13.549890182371477 163 105 83 1.0518519062028859 23 640 71 1140
101 0.52590355287781143 0.89143977470996338 13.755665965076618 163 105 83 0.064726191556268173 23 391 71 897
80 0.29685797339950759 0.89337301111126521 13.38041871096139 181 138 119 0.14598999163347762 92 780 20 411 99 873
21 0.19800588280629133 1.9183333777401763 14.08241427790125 230 176 174 0.71540047268016138 98 570 94 406 92 983 20 532 23 456 8 1347 71 976 3 905
79 0.69791689421516567 1.6336354241036337 14.23461608654231 196 148 120 1.7475994918674151 98 499 20 339 99 879
78 0.49526372503346661 1.7421206769179427 14.054308783326643 136 61 42 0.83875720918044394 92 570 20 338 99 733
19 1.3255793031478402 1.8962266806779551 14.721989824925364 199 158 138 0.4750341177472916 98 568 94 408
77 -0.099041869653365769 1.6784342503584422 14.002194370413338 207 118 100 0.83792872388850603 92 567 20 336 99 732 3 707 2 672
76 0.85150589775530039 -0.084476841684133455 14.213310009275817 21 25 12 1.0186967003672547 92 102 20 323 23 107 8 992 71 760 3 769 98 399
75 0.76955364727066355 1.6998298886094863 14.017866079409782 133 80 54 1.1515629068795212 98 430 20 190 3 709
74 0.76955364727066355 1.6998298886094856 14.017866079409778 133 80 54 1.1515629068795159 98 431 20 189 3 708
73 -0.061694145896729238 1.544923557463654 13.960363211489923 244 187 161 0.73435949960171354 92 164 20 186 99 345 98 333
72 1.1979065878773838 0.077137249473713143 14.940232980366922 167 157 148 0.47669260812012065 98 295 20 163 2 433
71 0.76012634800373136 0.029783106993725522 14.154430244136138 200 179 166 0.56645809697410643 92 494 20 160 23 293 71 886
70 0.30169960749635449 1.5447362467835477 14.383295718424765 253 224 217 0.2163468552838331 94 127 92 165 23 153
69 0.89909234293283757 0.37040691460388459 14.160030023573308 214 186 172 1.4985060204856064 94 593 43 1970
68 0.6313023524972029 -0.35408318241761472 14.072988264835493 110 78 64 0.19137994897597949 94 434 43 1866
66 0.53881552187558357 0.24007583909264174 14.083948891753725 220 187 166 0.065445272939083865 94 503 43 1795
65 0.54718575098067368 0.87758785694758645 14.283146147088303 157 111 92 0.11814214309812637 94 297 43 1525
64 -0.67409296197616997 -0.57267057258751508 14.265485117492005 189 147 123 0.44746033626229031 43 1503 84 33
63 1.1486743806257538 0.0042139261304279148 14.106409871012975 154 150 141 0.36957464848524024 94 41 43 1269 92 498 23 294 8 705 71 888 3 474
62 -2.1544633238664059 -0.45231399501794861 17.866145562633687 50 39 33 0.41815291543465588 94 602 84 325 92 1270
61 -0.28377947698594375 1.8064363891688067 14.051728315612518 136 80 87 0.66579823666533289 94 578 84 300 43 1976
60 0.070913782788287541 1.4827934893175241 13.812739279540793 201 165 151 0.6731549778377518 94 574 98 665 84 278 43 1942
