# 3D point list with one line of data per point:
#   POINT3D_ID, X, Y, Z, R, G, B, ERROR, TRACK[] as (IMAGE_ID, POINT2D_IDX)
# Number of points: 420, mean track length: 3.251131221719457
378 0.59175876268891103 -3.9097727098792174 13.422028445011327 52 41 36 0.034970600358980163 12 979 32 1020
377 0.62346222332418921 5.3832210311140969 18.134937901896791 63 66 76 0.16217733232191819 12 974 32 1015
376 -1.1921184344450257 4.626212365776726 16.507450148319784 19 23 32 0.36712601585981658 12 973 32 1014
375 -1.5745148754606983 3.44012078702155 15.027656065813785 33 37 44 0.045367692513771957 12 971 32 1012
374 -1.0362772729395422 2.8435892305972561 13.87034647120937 183 145 136 0.62495542103586466 12 970 32 1051
373 1.5164737327767295 2.3639922175440686 13.918677485427331 61 84 58 0.092811067740741299 12 967 32 1011
372 -0.17484147834691224 2.482940510766134 13.240139823676493 221 194 175 0.021880709783206768 12 966 32 1010
371 1.7971833819550609 1.7942631088935683 13.655430993225794 54 54 52 0.12986523744743583 12 963 32 1008
370 1.2883680780590665 0.39801511578163307 12.20569391803271 203 181 168 0.10101859940962096 12 960 32 1046
368 -2.3502144067641546 0.22343093595971966 12.410777248695075 179 144 126 0.052724618788891411 12 958 32 998
367 1.2746079095880387 -1.1045386839471458 12.147245225294501 110 105 97 0.035652222810392278 12 952 32 992
366 0.70482233784352655 -0.99397291070486871 12.359437878702101 207 173 172 0.063594246784925812 12 949 32 1042
365 0.39360535511898176 -0.87243737596115789 11.614497600558659 212 185 183 0.24011782479801261 12 948 32 990
364 -0.18505160512720092 -0.93240608836683436 11.570147193684884 230 189 166 0.6904094568333129 12 947 32 1038 68 828 71 913 40 495 21 393
363 -0.1969193615382798 -0.919032950796974 11.508280642297459 230 189 166 0.47035270471568874 12 946 32 1037 68 829 71 912 92 1047
362 -0.62280376060233822 -0.8892511013222324 11.760302311151461 230 197 180 0.94650753032585222 12 945 32 1036 68 827 92 1012 21 264 40 290
359 -1.6145200784659954 -0.99674491755956673 11.936210947544431 138 111 91 0.52049253770557136 12 942 32 986
358 2.3084955929376756 -1.6775790300984321 13.228430297459029 10 11 6 0.087728158628273184 12 941 32 985
357 1.1410248152600051 -1.5377752952469044 12.221765317804504 170 142 132 0.043651583678234671 12 940 32 984
355 0.089650450520752351 -1.3874427274740622 11.41692500446273 225 188 169 0.75629180077582259 12 935 32 982 92 1002
354 -1.9265261186411324 -1.626850981119861 12.082757476076898 160 131 115 0.31643961654838809 12 934 32 1028
353 1.5155409399663211 -2.3743337494772585 12.896158655321132 100 100 102 0.18169644256006662 12 933 32 974
352 2.2143309890947309 -2.9556503659261777 13.688816289844031 16 18 13 0.10521304248636379 12 930 32 1026
351 1.6734678805090377 -3.5046492449236144 13.670202837603908 60 61 56 0.34224156018772323 12 928 32 970
350 2.2009761347873051 -4.3760363291036271 14.642923342217033 62 83 71 0.28199282147123778 12 927 32 969
349 2.2009761347873051 -4.3760363291036271 14.642923342217033 62 83 71 0.28199282147123778 12 926 32 968
348 2.3506411035175594 -4.7260432020662657 14.904693178243431 22 28 21 0.24412334054080842 12 924 32 967
347 1.4653949475475918 -4.5738829718701668 14.317332168910564 71 92 62 0.045968866169426338 12 922 32 966
346 1.4653949475475918 -4.5738829718701668 14.317332168910564 71 92 62 0.045968866169426338 12 921 32 965
345 1.0444205786230629 -4.5092125263729219 14.033652978760763 14 25 9 0.025276379896798932 12 920 32 1019
344 1.6031418037027332 -5.3297587724516147 14.935194044270711 20 27 17 0.1629186004946418 12 918 32 960
343 0.45325810387573501 5.8363858950136711 18.854068611585369 65 71 85 0.13635361708885282 12 903 32 958
342 -0.99927378250174648 4.6664951380627677 16.873826868517238 53 57 66 0.045113242920965892 12 901 32 956
341 -0.53169051507111464 3.9209993773412548 15.403001971917647 69 76 90 0.23921021768842571 12 898 32 952
340 0.81639770435176273 3.3998692230445009 14.925875530081502 34 41 51 0.067637522064733266 12 893 32 1013
339 0.19191429086102263 3.823265040151353 15.384242241050771 59 58 74 0.20354628319600443 12 892 32 951
338 0.19191429086102263 3.823265040151353 15.384242241050771 59 58 74 0.20354628319600443 12 891 32 950
337 -0.10298602303961581 3.4572863108256602 14.438653696073109 245 246 251 0.98800010265535165 12 889 32 949 68 428
336 -0.42007470451458828 3.4843328606723185 14.463380774247451 236 241 249 1.4088175770670563 12 888 32 948 68 709
335 2.1330824293523651 2.3512442858630371 14.534819380379229 17 30 20 0.0810440126135097 12 881 32 944
334 -0.94402840545032296 2.6283479522885522 13.543895080232025 214 176 163 0.16881419555682453 12 880 32 942
333 0.60915886835401589 2.1712129438958807 13.193884747893751 209 176 161 0.058927453818090975 12 879 32 939
332 2.0679070556818617 1.4371370632836764 13.563918523872681 15 16 11 0.084902494164417655 12 876 32 933
331 2.6465867563663936 1.2206148316025613 14.125291438674912 21 24 13 0.11883598551153846 12 874 32 1004
330 1.7151226645944182 0.92056219730919087 13.008639941724102 20 21 16 0.35124982786048115 12 873 32 1003
326 1.5747013635863276 0.19825123916388238 12.277868159233169 13 8 3 0.23111737740983485 12 866 32 999
325 -2.3154094180554345 -0.035444333415780765 13.157899043294663 131 102 92 0.65945190309294199 12 864 32 997 71 692 92 969 31 563
324 -2.6971944680508999 0.29377121984130194 12.659293838236941 85 101 127 0.32564048063120488 12 863 32 923
323 2.1122775036041159 -0.70066014898610307 12.980106454781302 64 65 59 0.011502855947791265 12 858 32 996
322 2.1122775036041159 -0.70066014898610307 12.980106454781302 64 65 59 0.011502855947791265 12 857 32 995
320 -2.1692678937772829 -0.47557996346713799 12.050900103560794 120 95 85 0.39293548831494268 12 855 32 918
319 0.80392372351936991 -1.05970189653969 12.001386186896807 68 36 25 0.65892483109765188 12 854 32 991 23 518 18 399
318 -2.3872495421744855 -1.34186189849043 12.391169583242183 61 51 52 0.049363387149264193 12 852 32 981
317 -2.6583096138525906 -1.4376849125579712 13.290945864565423 188 146 134 0.97201923489921627 12 851 32 909 71 823 21 400
316 2.2484782655782927 -1.9177755614564123 13.283606752908582 80 97 79 0.06393088332473694 12 850 32 904
315 2.2484782655782927 -1.9177755614564123 13.283606752908582 80 97 79 0.06393088332473694 12 849 32 903
314 0.97453660139350262 -1.3669105488497102 12.038586742718483 108 88 79 0.082058627576941587 12 848 32 908
313 -2.142444610947154 -1.6896999225644549 12.297600169500475 102 86 79 0.0079743854736525482 12 847 32 976
312 1.754822304608987 -1.9372296960427444 12.809764293481683 20 21 16 0.039612147066390657 12 845 32 901
311 1.3243737663990687 -2.0126381353647012 12.64832789854511 96 88 86 0.2010011520413609 12 844 32 979
310 -2.6031578299623512 -2.1235234621337473 12.703498246873508 99 110 140 0.1531462824885389 12 842 32 896
309 1.2980014662942256 -2.4877490342333952 12.824936335614767 69 69 67 0.07720211901833729 12 841 32 973
308 1.4646512267602534 -2.7067363950446346 13.004676208319911 132 131 136 0.067376010522089497 12 840 32 895
307 2.6918359794169016 -3.7228242453534541 14.474006221149532 82 100 94 0.044703396929150721 12 837 32 971
306 1.1882896091538098 -3.5276182113139432 13.473190381128079 91 91 91 0.010226191434572943 12 836 32 890
305 1.1729884650837366 -4.0713703884463399 13.698236587040848 11 7 10 0.07668074725035301 12 835 32 883
304 2.2065825594850641 -4.9628941474271207 15.080450786794618 50 69 49 0.015372972707052446 12 834 32 886
303 2.2065825594850641 -4.9628941474271207 15.080450786794618 50 69 49 0.015372972707052446 12 833 32 885
302 0.27916346206237264 4.2289143525286379 16.041372793206083 65 68 77 0.057017469173061976 12 804 32 954
301 0.27916346206237264 4.2289143525286379 16.041372793206083 65 68 77 0.057017469173061976 12 803 32 953
300 0.08429129027450806 4.489291290781976 16.382459725701562 51 59 64 0.052630003617572474 12 802 32 957
299 -0.084212472075366196 3.7970790439490663 14.64367052928406 70 76 87 1.293724303561498 12 801 32 871 68 713
298 -0.17282828727691221 3.1505857625876974 14.24860183458043 233 197 184 0.074849519636325468 12 800 32 946
297 -0.17282828727691221 3.1505857625876974 14.24860183458043 233 197 184 0.074849519636325468 12 799 32 947
296 0.096187936436120405 2.3976665531234596 13.349431109695047 182 148 146 0.1394703691291202 12 798 32 859
295 2.22126842033988 2.2004812511361709 14.427258295813967 56 74 54 0.20820136052505731 12 796 32 857
294 2.4122854317517786 1.7875962424251881 14.466299154829244 59 60 55 0.021543527733954633 12 795 32 853
293 1.9748835374131668 1.9327466370974871 13.983635697908991 14 16 13 0.16978698621390015 12 794 32 934
292 1.5774407502888346 1.9706960286436535 13.675262758073835 62 62 55 0.05068556938963413 12 793 32 940
291 -0.37905694754953839 2.1497761841044256 12.670558981069636 152 116 102 0.4179480920048616 12 789 32 938
290 2.1981791527857966 1.5934994741848747 13.900729796383118 58 59 54 0.1389726583862527 12 787 32 936
289 2.46440041618215 1.487964031885127 14.100690253944629 46 47 42 0.0043814220429370544 12 786 32 851
288 2.2580426314192659 1.2330531938943015 13.627241622497387 12 13 7 0.0059026341301767569 12 780 32 845
287 2.2580426314192659 1.2330531938943015 13.627241622497387 12 13 7 0.0059026341301767569 12 779 32 844
286 2.0149902794944263 1.2787675468318387 13.384077047384592 72 68 66 0.10856436794530783 12 778 32 850
285 1.1183862577168722 1.1273978707942429 12.506991668225373 2 10 0 0.17604622358456146 12 777 32 932
284 2.2550427622961786 0.72544721781983112 13.379804157648438 66 67 62 0.25199029256687983 12 773 32 930
283 1.8107038052608717 0.64809356817580754 12.887090062318379 18 20 15 0.23493865981320589 12 771 32 929
279 1.8604894932797853 0.054949860476823854 12.56812364796699 15 11 10 0.0058255655693023305 12 766 32 924
277 -0.14350963170084213 0.143454762817007 11.600189739375809 215 183 177 0.52222863450555401 12 764 32 829 68 660 92 838
272 -2.5529475360573053 -0.35972189710253394 13.543295147386701 198 164 144 1.1786363625819418 12 755 32 922 68 770 71 691
271 2.0821813151450685 -0.90598903557289612 12.89977116006397 29 32 25 0.1707862782896209 12 754 32 813
270 1.9235619593239768 -0.85475673444129041 12.700129297585105 55 59 52 0.12382941695846605 12 753 32 811
269 0.59976842376048123 -0.72376591248607458 11.999124476963168 207 171 154 0.47856069778755489 12 751 32 809 92 901
268 -0.46658002337966542 -0.36201991117986099 11.360910108366262 160 123 105 1.1599466725948591 12 750 32 820 68 652 71 468 92 908 95 616 91 773 49 743 28 348
267 -1.7436513642853686 -0.68546177320461488 11.950953010156534 143 108 86 0.11053704685311876 12 748 32 916
266 -2.8181190807593155 -0.85504256452893779 13.328676863079282 159 114 93 0.85058772847838704 12 747 32 806 71 92
265 1.5461323652291741 -1.1484896547660788 12.410376039501385 191 161 152 0.0077722699627633205 12 746 32 804
264 1.0968225132425142 -1.1774036669700934 12.047965607373371 169 139 128 0.017509022168879979 12 745 32 803
263 0.09807022827581946 -0.89200194316970238 11.494590273517373 228 208 195 0.18318549935698167 12 744 32 914
262 0.23807449923644949 -1.0221238492424605 11.792339162566387 124 83 79 0.85192561870989114 12 743 32 802 23 424 18 281 84 257
260 -1.7126804612494213 -1.2141452197499136 11.98208908782291 174 132 118 0.091222500895010689 12 739 32 912
259 -2.7234986285672464 -1.1157664786022166 13.512942696430359 190 144 122 0.86996004323968412 12 738 32 915 68 765 71 679
258 -2.8828035655778756 -1.4959823432765931 13.616017174927714 120 73 55 1.3232547533226464 12 737 32 801 71 461 92 658
127 -2.7017762565476229 5.4566154470240589 18.349996715110262 240 252 255 0.36007600924002214 12 342 32 344
126 0.20374542723283526 4.8349458247300063 17.353647914748834 56 56 68 0.036861795252814397 12 332 32 336
125 -0.20338107111838191 4.649953366114806 16.817011499863117 13 23 35 0.073397707044913579 12 331 32 588
124 -0.62524587926555375 4.2674529533447698 14.665882487198866 206 213 241 2.4219862762572468 12 330 32 333 68 604
123 0.20473844203611616 4.2144458507955012 16.041945174817727 68 68 76 0.0052236570672860305 12 321 32 582
122 0.20473844203611616 4.2144458507955012 16.041945174817727 68 68 76 0.0052236570672860305 12 320 32 581
121 -0.79709183577563847 4.2734459101294133 16.186042246379788 53 58 64 0.26315113973856585 12 318 32 327
120 -0.79709183577563847 4.2734459101294133 16.186042246379788 53 58 64 0.26315113973856585 12 317 32 328
119 -0.9425161482633555 4.4349536434674315 16.357921116309818 15 22 30 0.20161778264876942 12 316 32 754
118 -0.9425161482633555 4.4349536434674315 16.357921116309818 15 22 30 0.20161778264876942 12 315 32 755
117 -1.0376175232597962 4.39517800243806 16.505551025914396 54 59 63 0.25251118566109704 12 314 32 580
116 -1.0664503785217825 4.2392030958908018 16.083768012597162 10 13 17 0.49048063627059824 12 313 32 579
115 -2.7944935731280873 4.223418716520472 16.914131305201074 58 66 77 0.37120258513544946 12 312 32 578
114 1.4440710050594694 3.5019201868488459 15.27028472081464 67 74 93 0.094213492530079768 12 305 32 750
113 0.63411622725752681 3.8169920291758705 15.620099025366919 59 66 76 0.12731561147480208 12 303 32 316
112 0.53724382760642531 3.8105081559385998 15.411361857197269 10 18 23 0.10885359481959692 12 302 32 576
111 0.40343076234630193 3.5958229326792814 15.032533387053718 58 64 78 0.02349969192867497 12 300 32 313
110 -2.6533225475349704 3.516903283528551 15.740861013423707 58 67 84 0.50178785649161628 12 297 32 558
109 -7.6017155348145629 4.0510580649105252 21.77120244545943 51 60 70 0.87832987048565836 12 296 32 301
108 2.6758065023268247 3.1927583315936685 16.155865756995357 70 75 77 0.20557286302014527 12 291 32 567
107 2.5816623172432172 3.0666411622593781 15.855078169472097 5 15 7 0.10268666336231805 12 290 32 742
106 2.5865526053112333 2.9656641258558079 15.75405011106405 42 54 37 0.37170318541195513 12 289 32 555
105 1.396598173584066 3.2160789205906717 14.939247043882759 58 67 88 0.29150812960868211 12 288 32 566
104 -2.5737103867537083 3.3049802929199656 15.080312508221027 57 66 83 0.66358847285109701 12 283 32 557
103 2.4308397268476862 2.7949447988181948 15.397400544178641 47 58 42 0.081093725163389696 12 281 32 294
102 2.0785472904013877 2.6885577934896321 14.940763500898331 61 69 56 0.10858684246009657 12 279 32 542
101 1.7489836050598857 2.5735800658154009 14.699697863822189 10 19 14 0.060666449819583954 12 278 32 538
100 0.27600981898313615 2.4711949680170417 13.446495114947144 205 165 157 0.12211304208198862 12 271 32 534
99 2.7338520789573675 2.2444875058486975 15.105860093321187 77 84 80 0.12919300468357978 12 260 32 737
98 2.2348885399456551 2.0762962149282584 14.365962827730334 23 29 22 0.0064516380405564696 12 258 32 736
97 2.2348885399456551 2.0762962149282584 14.365962827730334 23 29 22 0.0064516380405564696 12 257 32 735
96 1.6591908972587734 2.1539317761909151 13.86792650700996 64 64 60 0.16425218172804451 12 255 32 528
95 2.0933911874297624 1.8813491973919985 14.003072345427197 56 56 58 0.27890454461020442 12 254 32 525
94 1.4645482692874643 2.060009388409465 13.901626282119096 8 19 0 0.43368846375036274 12 252 32 527
93 1.311705296306598 1.8474376864688098 13.207315374822862 52 73 41 0.048629556727225423 12 250 32 728
92 -1.6716558196267681 1.9181587690439263 13.100691401718398 173 126 116 1.4364909579602574 12 245 32 225
91 2.4775156405928263 1.4292333411595171 14.066373832571335 51 52 47 0.097327734527650006 12 237 32 518
90 1.8376047982445902 1.3502356632461712 13.406692285561299 12 17 11 0.31030001956192788 12 233 32 511
89 1.6399278029920972 1.4780470219156285 13.030444475781344 7 9 4 0.34565638849081748 12 232 32 513
88 0.62597209300253542 1.4872115332010556 12.406092796044911 173 144 130 0.035046994973355422 12 227 32 715
87 0.39802494005244354 1.7067849395604588 12.526349238360028 152 117 113 0.46774030404816469 12 224 32 520
86 -2.1948608854432083 1.3918305677427882 13.105702355645157 133 105 104 0.16618636827999955 12 221 32 508
85 2.2198569026130772 1.1183712520508031 13.678786614094898 76 77 72 0.039040208790613873 12 220 32 506
84 2.0415884745987021 1.1084500421941053 13.386328527446784 97 98 93 0.11600014430094266 12 218 32 711
83 2.4668231658417312 1.022337720964825 13.700716011223168 24 24 22 0.01682566604942284 12 217 32 712
82 2.2482542678307427 0.95150183770018504 13.63273224337089 71 71 69 0.17288038074915435 12 216 32 503
81 2.3901483501604037 0.81076497425612126 13.545615348910323 58 59 55 0.072120505558614351 12 202 32 499
80 2.5050054244272641 0.63299251672261714 13.523184881936626 50 50 49 0.16481535942976322 12 200 32 498
79 2.3999986036368641 0.52475592206503596 13.444023179191362 52 53 49 0.12505874330057809 12 199 32 489
78 1.7927450230481481 0.80451992377987147 12.916806616147571 61 63 58 0.20391458005108495 12 196 32 494
77 1.7927450230481481 0.80451992377987147 12.916806616147571 61 63 58 0.20391458005108495 12 195 32 493
76 1.9505630719154659 0.51645449008743682 12.963115876903403 72 74 68 0.30073408206346969 12 194 32 486
75 1.9505630719154659 0.51645449008743682 12.963115876903403 72 74 68 0.30073408206346969 12 193 32 487
74 1.9583695439759969 0.40784552745135288 12.928450206084735 79 78 74 0.17678783080357524 12 191 32 485
73 1.7024090500418978 0.60144575954744439 12.807990046187825 36 38 33 0.10396755558224741 12 190 32 484
70 -2.2204395592207073 0.68414302258617488 12.867342521534376 109 99 100 0.99688732769982535 12 184 32 701
69 2.4115548713965258 0.28549705166484124 13.612758514074017 41 46 28 0.32625057639086896 12 182 32 488
68 2.2375209064607584 0.17568183126453743 13.115017297384554 59 61 50 0.044182326304451749 12 181 32 480
67 1.8201769792451201 0.23518222630003605 12.619589050551589 59 60 55 0.070136607421047617 12 177 32 688
66 -2.3291803191251166 0.048560836602392889 12.227631464699549 180 152 138 0.39061920504814868 12 168 32 685
65 -2.4447056866564782 0.03906391153105674 12.559539969615608 147 121 108 0.030812175249121991 12 166 32 474
64 2.4820276353784982 -0.31569666447145656 13.30447266768733 66 81 56 0.34114189780422133 12 165 32 473
63 2.0014640143920479 -0.17064418136543832 12.880194487662193 52 58 51 0.07574686694798595 12 164 32 471
62 1.3152135860673995 0.00068213024156591417 12.141925835267198 218 180 171 0.14511844894334386 12 162 32 677
570 0.24527336883544279 -0.94731256026230948 11.802264430033594 215 165 129 0.79774490144420906 92 681 95 396 52 511 77 89 37 323 44 767 91 499
29 2.2052604237873057 -2.183569091489999 13.305214448725545 80 90 75 0.02485047980836131 12 87 32 635
569 0.36629248768380607 -1.0771867171180904 11.983727319999632 200 186 168 0.74301330933289234 92 680 52 510 50 483 37 322 19 324 61 144 6 1126 44 756
28 1.9549989678644035 -1.9946630135422652 12.99524112140903 57 58 50 0.051745159104562642 12 86 32 410
568 -1.135877317019677 -1.0835993154957537 11.835480114992498 66 43 19 0.85384247915978284 95 109 52 383 15 137 19 115 88 303
27 1.977038905042791 -2.1362992523531172 13.023691396083645 63 64 56 0.011963241212906007 12 85 32 406
567 0.16218393837046732 -1.2767133161240851 11.69265380236571 145 96 56 1.2650234737164654 95 115 52 378 31 421 50 144 37 86 44 750 75 530 15 322 19 300 72 58
26 1.493697277805188 -1.9195620034268399 12.66779453600634 53 53 55 0.079649431994626929 12 83 32 632
566 0.27338166861312901 0.62867528581819476 12.038495185680116 174 108 92 0.16599136365033923 95 205 52 250
25 1.8977321496432453 -2.1967711548777262 13.015966621071534 22 23 15 0.20039851069562703 12 82 32 625
565 -2.9305636088381757 -0.94397223253306906 13.659250907969048 218 150 105 0.9274532592025061 92 165 52 182 31 91
24 1.4757459257536247 -2.1970369957377001 12.726360872624245 127 127 130 0.051805040543337164 12 80 32 403
23 1.4566910055610245 -2.2962683294059185 12.738713731204859 129 133 136 0.11476956413682597 12 78 32 402
563 -1.6622276264333011 -1.5296333050277888 12.074092273784583 172 111 67 1.2269197133164411 95 513 52 143 31 416 91 754 79 959 13 837 99 857
22 -2.4999471689922381 -1.8643576478390558 12.618062806531226 69 76 81 0.1023990995183497 12 73 32 407
562 -1.6984526839766543 -1.6764714159460468 12.11078044224562 177 116 69 0.48471212712909101 92 109 95 381 52 122
21 1.6092341887559456 -2.7805318494365476 13.1795597232944 20 22 21 0.068024016052553621 12 67 32 397
561 0.27957838701643567 0.5882178762128768 11.817811075496319 58 4 2 1.7504226761483479 68 120 95 437
20 1.2194061560395872 -2.6886279814005674 12.857705911196412 73 69 66 0.022161293942744492 12 65 32 622
19 -2.2011927546181642 -2.4617133336460775 12.639107641944264 131 132 136 0.23750651176040613 12 63 32 396
18 1.474365078140538 -3.4098084077173136 13.518665628614556 31 32 30 0.080162613798007626 12 58 32 64
558 -1.2102291798963694 0.75146978401152631 11.922130330771447 218 153 125 1.569831420902301 12 1050 95 815 77 767
17 -2.0030143626326931 -3.2860914856607266 13.066429672069907 55 50 54 1.130023536377915 12 56 32 620 71 19 68 327
557 -2.4504234056459961 0.13924457312847496 13.219884339967594 166 114 87 1.3566950561666231 71 919 95 794 52 698 31 656 15 678
16 2.3049781227423431 -3.9378035340479278 14.271249922520456 52 64 48 0.046426614857606657 12 53 32 617
15 2.4197443305448187 -4.2820658210931857 14.656960368593385 10 23 6 0.049756066664174398 12 52 32 615
555 -0.60101254046291142 -0.22003482046391942 11.508959363771179 195 134 115 1.4147564182999841 92 915 95 690 31 561 50 813 64 391
14 2.1620005044065853 -3.971554892136941 14.305001410877873 54 66 52 0.0090297828605699366 12 51 32 616
542 1.9753547929460207 -0.79692040098824168 14.493760565234615 167 100 68 1.8958178353060671 95 414 31 433 77 110 91 233
1 1.0939266163655423 -4.9890088993459969 14.484763011555085 35 41 27 0.056721237479172862 12 7 32 371
543 -1.1973529824760971 0.49068328239998288 11.889194202841379 186 123 95 1.5476012430289294 92 549 95 428 50 532 44 790 72 142 75 565 49 207 77 368 88 451
2 1.0939266163655423 -4.9890088993459969 14.484763011555085 35 41 27 0.056721237479172862 12 8 32 370
3 1.5371274557675021 -5.5259064616966898 15.098704184377128 19 32 15 0.21062510142841762 12 10 32 601
4 2.1029180099525249 -5.3908851930624557 15.342624454948792 20 31 17 0.24674054111939719 12 13 32 607
546 -0.91550921403756957 -4.7366686299068563 15.608568378694549 65 33 22 1.6265509081198406 12 449 95 494
5 1.6900758138074707 -4.5835916286623188 14.447821043340205 13 18 1 0.055664344186683812 12 28 32 377
735 -0.90818179792617992 -1.1087563297763672 11.900678570262627 30 3 2 0.919460577286768 92 673 31 314 50 174 72 342 44 754 19 318 15 330 46 511 6 806
744 -0.29184896085797918 -1.4114814877630455 11.52707038690202 176 125 104 0.6570239969799393 61 313 2 574 15 124 88 290 57 971
203 1.1741996283518861 1.2351875446510772 12.497963900078918 41 58 42 0.83614801826493057 12 576 32 843
749 -0.4821076379457746 -0.24109016949900314 11.341402896599185 202 155 135 1.4598633359669446 15 463 2 712 61 347 37 341 49 531 64 85
208 2.2232983044497363 0.87616630776779547 13.309918745812427 17 17 17 0.049317263186791013 12 582 32 840
754 -0.13517172629788751 -1.6042442892217095 11.586587627935108 242 199 182 0.93450804116113384 50 841 2 829 49 724 46 1112 3 951
213 0.42721867925876233 1.5615983067908763 12.323652773836308 137 103 94 0.31760155223756931 12 587 32 848
762 -3.2451433604670576 2.9888373890905289 16.229375861345403 179 178 186 0.79758246001929267 61 665 2 964
221 -0.97467313660506671 2.4749895206843657 13.532322123033696 166 130 118 0.098516470175674276 12 605 32 738
797 0.13255950338587466 -0.23143189728512634 11.308932710047083 144 96 73 0.77941455031734519 95 160 91 506 77 121
256 1.7559807580560403 -1.6196630934029523 12.817764307732528 42 42 40 0.045081582409741389 12 734 32 798
798 -0.65100013743607044 -0.10487065494044172 11.30912905441185 197 138 124 0.6512948181673438 95 419 91 536 77 120
257 1.7559807580560403 -1.6196630934029523 12.817764307732528 42 42 40 0.045081582409741389 12 735 32 799
799 0.25948737802516558 -1.0399712925620832 11.875383136128068 153 73 59 0.35539304490736229 77 336 91 659 79 828
801 0.81091904280140958 -1.0885659847543943 12.033523119918341 74 31 16 1.7772889753290511 49 517 95 610 91 766 83 669
803 0.53087723502046513 -1.1012034210961847 11.904919909064764 96 90 72 1.6273939328402676 77 687 91 909 79 1027 99 905 13 851
804 -0.40369243770616936 -0.74762830084461984 11.511066855172338 172 117 87 0.89572664177190597 77 726 91 941 79 1075 61 636 13 860
805 -0.16853740881801452 -0.19206037324650035 11.267889427676554 229 194 184 0.58639575782617792 77 783 91 978 64 566 13 977 99 970
806 -2.0323927141593807 -0.402871412686443 12.956536274549173 163 97 73 0.97735063683117429 95 857 91 995 64 581
807 -2.7855350125574252 -0.93311513899017529 13.718535369636994 215 167 150 0.80463600133187341 95 855 91 1001
808 -0.27479348585765595 -1.449400908165118 11.355401528157943 213 164 134 0.66018088023308796 37 419 64 53 83 565 82 314 84 255
809 -0.74441999567568939 -0.13484193828109078 11.432478368555641 167 108 84 1.0179855495499701 91 535 64 93 79 911 99 814
811 0.35394276227945937 -0.10826840005563704 11.91589785275543 206 153 122 0.97845211558717249 50 732 64 278 6 1593
812 -0.61966434283995397 0.58134593639616339 11.825092466143381 224 218 194 0.98009369579397854 50 651 64 284 82 347 84 193
814 0.018031964732015082 -0.74897358256998459 11.618862959140328 172 111 80 0.91990274626185975 50 917 77 693 64 509 46 1167 44 1080 87 1434
815 0.27113003171216926 -0.37296559023533615 11.829327515395487 129 97 77 1.4691457614088648 50 725 64 269 52 598 37 439 44 775 46 758 87 1287
820 -0.44960428305661077 5.968906559452356 21.88139608641066 241 243 238 0.92025890567151358 32 1096 23 756 4 857 18 683
821 -0.44960428305661077 5.968906559452356 21.88139608641066 241 243 238 0.92025890567151358 32 1097 23 757 4 856 18 684
822 -1.7013783553742921 6.3428014112989102 21.785015506720601 23 23 23 1.6829549939830237 12 1071 32 1111 23 758 18 687
823 0.70504618797650598 6.3444528552460362 22.145416488726042 25 25 25 1.1595981576330405 12 1087 32 1109 23 759 4 870 18 685
824 0.69704022752811545 -1.10766358142251 11.770038955627014 79 45 29 0.53106890001499496 2 119 83 131 79 171
825 0.16439762027129773 -0.80213095017498648 11.886534760160602 241 190 161 0.4927411914711266 37 114 83 143 46 521 87 1138
826 -2.6406870806953702 -0.53634680459155137 13.33858817244022 242 183 153 0.59169347924179094 2 443 37 105 83 150 46 196 3 203
827 -2.4043572298661182 0.23193678477845434 13.228330270748161 160 109 88 0.96123225736595941 2 466 83 177 57 804
828 -1.2209579647257149 0.47551619617031377 11.373108221474377 215 156 122 0.020786122309367158 37 143 83 199
830 0.88851719304725696 -0.82317488780947523 12.177511695045812 170 123 95 0.74388363214837883 37 522 83 734 46 918 87 1344
831 0.70735883839659597 -0.69184409177842821 11.924762686893326 196 136 103 1.5869928954382708 37 521 49 526 83 735
832 -0.21356789077575736 -1.0237408243471504 11.676505312467169 221 176 137 1.305704538858357 95 806 52 751 77 724 37 688 50 894 72 625 61 645 64 508 83 853 15 698 19 659 2 940 49 811 46 1204 88 661 57 1171 82 615 23 722 18 635 4 828 84 505 28 471
834 0.087972490943714746 -1.3605104623235926 11.567778120894422 213 172 128 1.7591554427498373 50 707 46 1015 79 964
837 1.0875573869003212 -0.9042339163035249 12.406246152555191 188 143 101 0.76722041843398125 50 915 83 856 46 1170 87 1436
838 -1.5034352801425266 -18.315228796081744 41.593361941198559 0 0 0 0.48053311555468459 46 3 91 629
839 0.25989318732528471 -1.3823903358764427 11.43490283501786 87 68 54 1.2359960664889162 46 162 79 142 87 977 61 314 19 299
840 0.33964069054103502 1.6268546735792806 11.795299457304068 131 106 86 0.28195155175126996 46 809 79 351
841 -1.8131432440356234 -1.2544750920883081 12.329599676379457 150 90 64 0.33735143558111219 2 579 79 489 13 89
842 -0.014561426756975559 -1.325698801791513 11.583407860607869 188 141 125 0.85008092852366846 61 126 79 493 19 96
843 -0.91614120166322399 -1.1193664987588032 11.811158523453512 46 23 15 1.0593879933131956 2 126 79 505 87 1127
844 -0.5191427481037193 -0.31721406960912113 11.387403392283771 210 160 136 0.38123168207141878 91 182 79 533 13 454 99 212
845 -1.8894948300119971 0.01611049835056215 12.617315400560024 186 132 104 0.90900317811495268 2 164 79 537 57 350
846 -0.17356452575670619 1.8490844593050262 11.692893974837306 152 123 107 0.58423398892871203 91 582 79 604
847 -0.23117713314335575 -1.8140933745425356 11.614625424631747 200 153 133 0.45375055574978679 91 81 79 683 99 615
848 -0.66877073947694021 -0.3452699844648971 11.557631897476512 178 115 97 1.8645019646136274 61 434 91 505 79 835 13 713
849 0.45413696865359965 -0.43413702983596703 11.908565117872087 188 134 118 1.8749549607092095 61 509 79 837 13 594
851 0.083077977775577114 1.2573427125123904 11.761122717361937 174 128 112 0.72942216727906506 91 795 79 930
852 -1.0211285834990169 2.4816573089031855 9.9245242303784504 198 207 218 0.39390915148070321 2 313 79 940
853 -1.5946693698631984 -0.9605796575703841 11.991730862527179 212 161 132 0.56256202220646512 46 905 79 1030
854 -0.73152427663002895 -0.64948700483614852 11.655517024376136 226 188 169 1.7031018323881473 61 638 79 1073 13 924 15 677 99 945
856 -2.5883595281680511 -0.21861325432066919 14.180571969207335 222 184 165 0.12924112015224004 91 988 79 1104
857 0.28598744546573557 0.54484429520144018 11.949540929524311 54 18 17 2.1537330809495301 46 1246 79 1113 13 993
858 -1.8848502714150408 -1.5996527558279716 12.589691416826888 181 121 84 1.8545944043438223 91 987 79 1121 13 1002
859 -0.028345321674441155 -1.3514857008826668 11.516809999545746 189 137 114 0.51868668364331738 49 506 64 55
860 0.74625415172656107 -0.95101922060571176 11.963799810326744 150 105 88 0.59156832783362057 79 704 99 483
861 -2.601112898848307 -0.52561601541218872 14.088010042902699 182 125 106 0.73676138525378321 79 904 13 710 99 752
862 -0.072433882546677472 -0.79469974290918799 11.565924159635507 203 142 121 0.36983994065891679 79 702 13 148
863 -1.6358513333035598 -0.023087282474540064 11.739694538377316 180 119 96 0.087213682125225456 79 717 91 532
864 0.76262446540476314 0.79005285455045704 11.75653763214938 145 99 76 1.7160994305603348 49 559 79 862
865 -0.89623620044513819 -1.044020803901957 11.701201972281154 216 190 176 0.037139667315816804 79 696 13 707
866 0.59563587054409417 -0.67460477530866381 12.168229127496391 180 118 100 1.1114893344401204 79 906 13 792 99 747
867 -2.9615853460698602 -0.30864908840254079 14.192353616369562 224 154 142 0.68476708512802187 37 118 61 187
868 -1.8618434791596483 -0.36500166822917857 12.227660717007582 159 105 81 0.21204599715975772 79 909 13 791
869 -0.62588476278717642 -0.92410050083672834 11.748431172994884 218 156 135 0.27216402984681143 79 968 13 786
870 -0.61882564438517573 -1.7568051684017798 11.594472593019097 230 184 161 0.39600819029307627 79 957 13 838 99 854
871 -0.16600421375257052 -1.5197704026552261 11.493902820169334 229 182 157 1.4950297988862682 79 962 13 841 99 855
873 0.4532551550720606 -0.63325320715221411 12.195628740199114 228 168 149 0.17381346421144073 79 973 13 863
874 -0.73067429407557671 -0.67039016393439543 11.651904388942036 227 168 146 0.92583291443088689 64 385 79 1074
875 -1.2403139445871822 0.67219885765189391 11.934807134429434 228 170 146 0.89411125726292262 99 979 82 618 84 513
876 -1.4147226119183545 -1.0220663066181628 11.93178130641212 162 103 83 0.67481848073958872 37 638 79 1069 99 968
877 -0.1953917997988639 -0.6569210357291817 11.551352106106512 214 151 127 0.59328834084907045 79 1076 13 925 99 909
878 -1.1817770587106196 -0.21489918878723013 11.715312682572987 225 174 153 1.0487919894823448 79 1106 13 976 82 617
881 -1.2446253754951546 -0.90339315100223239 11.819942390186434 194 153 123 0.96665094051907519 77 621 49 730 83 786 46 1019 79 1031 64 377 13 921 82 505 84 321 28 344
738 1.9752663881127139 -0.48508699529507238 14.299187547441749 148 102 79 1.0381758888363546 31 126 44 587 15 167 52 192 19 340 46 229 6 845 87 1028
197 1.2946852532356652 0.51212155585092067 12.327650779096441 183 164 147 0.1342435404310835 12 566 32 698
995 2.0399473179118166 -2.2927098266634114 16.925277735620526 205 170 152 0.97556285968830048 4 673 23 519 18 400
739 -1.1781023771970232 0.2450441570677751 11.83225458748508 145 93 72 1.4708148911217311 50 245 2 183 49 190 88 177 57 649
198 1.3055885696403733 0.71361802643469086 12.28358869287452 41 52 44 0.30394559616655198 12 567 32 702
996 0.028471565396319266 3.2545474159452246 16.440518049708647 217 172 149 0.84002809621329888 4 700 23 561 18 431
740 0.47360383896115055 -1.6810337975016616 11.452768928538662 192 144 122 0.98263150913648267 50 98 2 401 57 746
199 1.9405348169651 0.66716017458394339 12.989638510221692 82 84 79 0.29799039001287525 12 568 32 704
997 -0.5505631363428759 4.4427217475633993 19.383135951843432 46 46 48 1.707368069917887 4 630 23 618 18 440
741 -0.63113504163047185 -1.199722981652346 11.610311077684667 219 173 150 0.96244283464376923 15 123 50 142 2 420 61 141
200 1.9405348169651 0.66716017458394339 12.989638510221692 82 84 79 0.29799039001287525 12 569 32 703
998 4.4743291339633613 4.7663628336250756 22.572178864037983 20 20 22 0.75987272082685609 23 566 18 441
999 -1.1195300227973897 -5.5479441099769158 15.701919512450436 103 94 85 0.18656872174363046 23 497 18 469
743 -0.99896514386194968 0.66552395453294277 11.97891754249255 173 114 96 0.76460852852739114 50 268 2 485 49 208 88 356
1000 -3.0972057117373866 -4.989170476192859 16.713267295710949 129 118 103 0.99655962876166182 4 651 23 587 18 473
745 -2.7781553847106117 -0.88069738975189471 13.427028238651017 241 185 161 1.0825095937336213 50 486 2 597 3 794
204 1.9169868525400549 0.90287977607320469 13.007569434009868 111 110 105 0.23170786763525153 12 577 32 495
1002 1.7468329472183752 -0.01357434838037829 16.080856437701915 167 136 117 0.73870455211461528 4 619 23 539 18 501
746 -1.292031373202305 0.48485238650259926 11.930477797524793 231 176 155 1.2138196376571224 50 531 2 621 88 349 23 541
205 1.7282617773796096 1.3042503653779187 13.145948586512247 51 69 43 0.2946199991330547 12 578 32 719
1003 0.92591547483609338 2.3230914642671814 17.028452223147561 176 131 120 1.3729029949855078 4 784 23 655 18 510
747 0.27029264957887722 1.8013611158047715 11.691037456334614 85 53 40 1.2387131174493315 61 462 2 654 49 268
206 1.8826383611074984 1.2754749419910325 13.335049412766734 16 26 10 0.022762007283022405 12 579 32 849
1004 0.19858193032705043 3.9790743787597576 17.841700381806845 56 55 57 2.9202682937706785 4 631 23 617 18 516
748 0.17609025529608649 -1.263873533670075 11.606740735878633 104 59 36 1.1450552418942976 61 403 2 699 49 507 91 654 64 69 79 494 46 733
207 2.0462751045005834 0.85440376109764415 13.279636232296868 15 15 15 0.3401953056306527 12 581 32 705
1005 -3.0349050413551981 -4.305339750856727 15.842629146127386 120 109 99 0.67962461742194524 4 724 23 669 18 538
751 0.48064716547585956 1.0434217496477314 12.063554634208208 158 112 89 1.8311086966311463 50 747 2 733 49 566
210 2.2094691415779182 1.0458248531766763 13.431089347274531 22 22 20 0.025960204087236913 12 584 32 709
1008 2.2826814042093893 -2.3229517902426284 17.481053052793158 159 106 88 1.1264894515098589 4 767 23 639 18 549
752 -1.1605223108181715 1.6043413396852151 12.3547867241163 182 137 116 1.1846042233244305 61 365 2 739 49 686
211 2.4534565714354319 1.150789052216959 13.836099898682889 117 118 113 0.10312065582498674 12 585 32 713
1009 0.25195361180509063 3.7334116166958471 18.885353340924414 245 247 245 0.80888619870017686 4 807 23 702 18 570
753 -0.76849904828302196 -0.38143859836434368 11.702959439778004 246 195 175 1.6521276968373746 61 512 2 788 79 975 13 861
212 -1.6602309667597033 1.730283679605779 12.894989364648335 155 109 107 0.12886212052139695 12 586 32 720
1010 4.5139787025492115 4.5269906591744951 22.474205877164483 58 58 60 0.84280113897734776 23 662 18 571
883 -0.73122152800045614 -1.1895868898870501 11.631171940169889 209 158 113 1.1915240779622593 95 682 52 690 77 685 19 600 72 579 75 784 49 732 44 962 46 1115 79 1025 13 846 99 904 82 552 84 381
756 -0.91601189069039179 0.0081272526754107878 11.692445337706433 213 165 145 1.7854455254444734 50 730 61 515 2 849 64 92 46 762 79 720 88 566
215 1.1200285619921959 1.5062107969438459 12.763290390998277 58 72 55 0.13654647386117802 12 589 32 716
1013 -1.9988500345096327 -4.7769561154987334 15.078895725157155 97 81 66 0.33263396479530621 4 810 23 718 18 617
886 -0.66622949670366238 -0.94760371822898393 11.800063225109584 214 154 133 0.64598271742214164 79 700 13 429 99 475
757 -1.0467663274687129 -1.0581961909499769 11.836213546027018 65 47 33 0.98958959275867764 50 799 61 558 2 881 49 728 64 376 83 815 88 588 57 1069 6 1577 92 1009 72 622 82 556 23 637 18 545 84 379
216 1.1200285619921959 1.5062107969438459 12.763290390998277 58 72 55 0.13654647386117802 12 590 32 717
1014 -1.9988500345096327 -4.7769561154987334 15.078895725157155 97 81 66 0.33263396479530621 4 809 23 717 18 618
887 -0.45133991315422606 -0.98752472275340397 11.829085523505588 234 179 148 0.20286579885470407 79 701 13 430
758 0.34697289230394124 0.60634699165682582 12.225170426160735 42 0 2 1.7846707218521376 50 859 2 894 79 856
217 1.9142898694526409 1.6261849020450114 13.850941043761395 18 19 14 0.038499175173479519 12 591 32 729
1015 -2.2318139066495446 -2.629453869526603 13.54836125500451 206 174 151 0.47362147306317964 4 811 23 720 18 633
888 -1.7463113377860167 -0.65045666187813866 12.269646793658865 176 116 83 0.44947639967563341 79 528 13 443 99 493
759 4.4675348453822794 3.157647146328173 14.657345605406086 158 167 174 0.62230688111777521 61 641 2 901
218 2.4103859027115897 1.6029812886479327 14.197812125169833 16 17 12 0.064166559771804271 12 593 32 856
1016 1.7548241972501992 -2.6374716922294335 16.170042037728226 132 112 101 1.3966891778144417 4 827 23 721 18 634
889 0.58439033936571072 -0.97301323762142666 12.281355270098262 211 165 157 0.28076549596879941 79 903 13 712
760 -0.82835722230202624 -0.015885012693820151 11.642013359117493 223 170 152 1.123188990201365 50 853 61 612 2 924 57 1128
219 -1.5098168545346622 2.0024756010411253 12.973089084986734 170 126 118 0.27666181628950337 12 598 32 730
1017 1.5180771376110245 -4.1519184337318942 15.631377605382067 86 73 64 0.41314857819172496 4 840 23 727 18 650
890 -1.3559500119716403 0.046995692768032185 12.026755036943818 195 134 109 1.799634587757313 79 840 13 715 99 816
1018 0.41620521480126749 -1.2526997269686375 12.033379363847478 206 166 139 1.3791754037592829 4 872 23 762 18 673 84 560 28 514
891 0.92327990494549961 -1.2598650544869481 12.254508984000568 189 139 113 0.71767587437137703 79 1028 13 852 99 902
763 -2.5617417857343958 2.8666507678776711 15.365996202595898 21 22 27 0.68577371224303274 61 648 2 966
222 -0.88044260954838383 2.3683660853409791 12.815162098489767 178 144 134 0.37634346487327985 12 606 32 739
1020 -0.16475941606467623 1.2575595933422992 9.502210777349358 0 0 0 2.3009678846798716 4 874 23 765
893 -1.1122067209827733 2.8808889547053567 12.184506978005054 254 254 254 0.22346175174958313 79 1144 13 1021
764 -0.0068181668193199188 3.895252708801908 13.456483788191795 76 76 78 0.11680115429197298 50 960 2 987 3 1086
223 -0.61981794876224194 2.6944719927424132 13.41958473116895 222 193 177 0.24117784791106309 12 608 32 548
1021 -1.4128185906858988 4.7505843869709778 19.717499181298667 38 39 41 0.51535673704462759 23 773 18 699
894 -0.93850555005131386 -0.093984394090976295 11.711317663013757 165 97 87 1.1143525666486174 31 616 50 811 75 797 15 592 49 741 46 1036 79 910 13 795 77 575 99 873 61 569
765 0.93333844336345217 3.5893526195029395 13.920438284672151 230 234 245 0.62411961341374411 50 966 2 991
224 -0.19275239694369667 2.7130420780235989 13.620576641163648 221 193 179 0.23278593547137696 12 609 32 741
1022 -0.37028840593031964 -1.5337874404545844 11.523076091652348 190 162 152 1.8328967559238303 23 593 18 479 15 579 19 555 71 666 92 957 21 252 95 601 50 700 52 493 77 561 2 833 49 505 91 755 46 1011 79 961 13 781 99 794 6 1434 88 548 28 281
895 -2.9539679751287222 -0.77543923035069751 5.9911840755067294 184 141 118 0.029206145522408411 13 840 99 140
766 2.3156550599995422 3.2439497189730422 14.265432706364569 16 17 22 0.49263152978592561 50 968 2 994
225 0.1345218281905235 2.6414962097590737 13.555710122045189 200 169 161 0.1268818173004794 12 611 32 865
1023 -3.1456378487606766 -0.83020553165445687 14.739980394388736 189 139 109 0.08587542366451327 23 96 18 67
896 -0.28032591986045657 -1.3272230627392756 11.594634263040419 171 120 93 0.37849070795693973 79 139 99 459
1041 0.53650098283936087 -1.0613312156107013 11.87305986944056 76 44 19 0.80516779953723772 23 679 84 383 18 589
785 -0.26269113592095594 -2.942700620403131 10.218402451626721 61 48 42 0.23433893868017602 2 912 49 802
244 1.4744367330606363 -3.2778499897895554 13.383831921762999 35 35 35 0.08960423928987496 12 716 32 892
1042 0.73142509314588278 -0.86196777999026741 11.801674753127593 209 149 120 1.0558957150370152 23 642 84 387 18 548
915 0.53828047638086107 -3.984905032999349 13.394725197505927 50 46 43 0.14031142539628805 61 686 88 695
786 -0.40427460116054881 -0.75347978568570539 11.479854093304223 177 141 109 0.34276034144302586 2 922 49 814 28 448
245 -1.9707972132132645 -2.6774831410324111 12.987315161460975 148 125 117 1.103744594761227 12 717 32 894 71 659
1043 -1.3268445416366104 -1.3110101758520487 11.557436347795379 129 85 55 1.0885468047061333 18 583 23 673 84 431
787 -0.12716518918478639 0.35398655356706771 11.603854974755631 202 163 146 0.46232262960189185 2 926 49 819 99 947 82 561
246 -2.1108773144651098 -2.3197494618811283 12.49670221835426 104 92 94 0.034436104905304549 12 718 32 785
1044 0.5330540676271831 0.012462420981152954 12.145068303656847 170 103 68 0.75723529863132677 23 690 84 440 18 600
917 -0.17486202266522116 -1.2095285315763062 11.545710995870202 234 187 169 0.035542397789111835 50 480 88 306
986 -3.2221622179176106 -0.83085282513561287 15.402324762089366 184 136 105 1.8181036542841849 4 374 23 313 18 72
788 -2.5656499657735492 -0.27181801326967742 13.604491995920524 194 160 131 0.3109072442948751 2 952 49 843
247 2.0676251991205126 -2.6493221598622165 13.420657270021106 39 41 36 0.051587119955186632 12 720 32 786
1045 0.21590734784885965 0.26231777618943697 11.883961716710235 204 148 118 1.1394290424153444 18 639 23 724 82 591 84 467
918 0.81353285184953217 -1.0635204499368902 11.637471068070376 74 31 24 0.86848848146175406 61 410 88 500 15 527
730 0.51580490182350558 -0.92616221007594823 12.005566976823735 192 154 133 0.49585718269161128 15 634 52 648 19 609 61 608
189 2.1111465404748211 0.062960378891569038 12.909643412913931 66 90 68 0.11212292424255721 12 555 32 686
987 -0.45742823777887615 1.1042052134782327 5.4910852096200706 175 128 98 1.4719992675343156 12 869 18 85 32 925
789 0.68428653419193219 0.66122809434025953 11.891177886898566 224 182 150 2.0525457661952458 2 954 49 845
248 2.4772366838890321 -2.3690412186396026 13.672317125058081 1 9 0 0.023381579341702721 12 724 32 897
1046 0.71428101247345932 0.63303438504578813 12.101089475075767 234 169 134 1.0101565239853418 23 725 84 471 18 641
919 -2.1073308045413124 -1.5101025239033321 11.185813532589295 241 247 247 0.3160772667591959 61 597 88 620
790 -0.13409747094547442 -0.20916005192940881 11.479607065910157 225 191 166 0.45551902536657746 2 953 49 856 3 1060
249 2.4772366838890321 -2.3690412186396026 13.672317125058081 1 9 0 0.023381579341702721 12 725 32 898
1047 -1.3184767972569731 -3.5672681339282253 14.33887644397281 187 142 122 0.14479406830053601 82 649 84 557
920 0.54006820284851853 -1.0937802134671568 11.980748831504711 72 63 51 1.4218933046641749 52 725 15 671 19 605 72 627 61 604 2 836 88 626 50 795 37 516 46 1021 44 1054 87 1395
732 0.051827135681629506 -1.1993420633579253 11.687520669705755 155 117 94 0.94288750601188531 15 685 2 918 23 678 18 588
191 1.9881007562739137 0.29883196714783467 12.892228897867469 93 88 84 0.099008515103029493 12 558 32 699
989 0.28525959639767384 3.8091681180040751 18.722186835873227 248 249 251 0.91211726315863217 4 556 23 200 18 149
791 -1.1802758820795125 -3.3338548875345122 12.474309068921107 181 150 130 0.44750736088791898 50 951 49 861 83 904
250 -2.484650472912755 -1.6509941496680924 12.501832331665158 118 122 132 0.41872566154450996 12 726 32 975
1048 -0.88148056179252021 -1.2252745346483644 11.93571112420363 182 129 96 0.86752822983661382 18 671 84 559
921 -1.7288945117241143 -1.7253154388790901 12.53090621040419 150 95 75 0.47591152326956276 2 82 57 221 3 110
990 1.6929713561515871 6.0561415540649826 22.671220524372067 204 206 205 0.78206356392456566 23 232 18 192
792 -0.97290043780720814 -1.6265041962430853 11.309715102905079 219 166 137 1.7714500624930627 19 670 2 958 49 852 12 1021 95 833 52 758 31 717 77 778 37 718 44 1094 75 899 61 656 64 561 6 1810
251 -1.6184037874532431 -1.436020048076077 11.95652064394859 168 165 164 0.10863835142136044 12 727 32 905
1049 -0.77001736449158309 -0.8510371383032288 11.506228791787297 183 122 95 0.72838819361490426 49 120 28 290
922 -1.6906276436883805 -1.7462160119757029 12.28435933779755 188 132 112 0.74993074681234972 2 398 57 745 3 462
734 -1.389930854753425 2.7226326093810949 14.720380824788107 150 104 78 0.15002182956581139 15 717 19 698
991 -0.57374206344193801 -3.890631664371607 13.119083720563117 137 109 88 1.4341762712958779 4 467 23 407 18 263
793 0.35499401473522108 -1.3813639442081638 11.592963709861664 83 48 36 1.4489040552405665 31 649 44 1048 75 862 50 889 15 666 49 780 12 937 32 983 95 739 77 684 64 446 46 1162 79 1021 99 901 82 587 87 1426 28 392
252 -0.9775186976016581 -1.5279098002642837 11.734194691314245 125 107 102 0.18746059130553161 12 729 32 790
1050 -0.2026645076192759 -1.0329020033769249 11.107189803714359 223 171 152 0.38957853694717393 84 504 28 472
794 -2.5092484440495362 -0.9448669251698667 13.722089365951723 162 131 110 1.1410296980596197 77 81 91 143 95 127
253 -0.76027092389453954 -1.5786988571519627 11.567332816484052 226 197 179 0.058791176106657558 12 730 32 899
1051 -0.5157950125560844 -1.6147716019762546 12.130340126498183 215 158 140 0.099825417524310553 84 501 28 493
736 0.58169025216718218 -1.2367623437392423 11.85369646962719 197 151 115 1.2253234567379445 52 687 50 797 72 581 19 603 44 1011 61 602 87 1393
993 -2.7479734821817465 -4.5080920384864385 15.688053197403978 172 165 155 1.3561114185180645 4 576 23 588 18 388 4 652
795 -1.0369967672011067 0.013903136480014525 11.004636653537615 185 126 110 1.0669563753921609 77 118 91 218
254 -0.37944242150499002 -1.4898390314134817 11.929868070502756 215 188 177 0.16257452179395859 12 731 32 795
1052 -1.1116353106425958 0.44917518021029584 11.912914960816902 225 179 149 1.6520139145937001 12 763 32 831 68 777 71 695 92 924 95 628 50 735 77 633 44 913 75 745 19 505 49 554 64 393 88 568 61 577 28 218 18 499 23 607 84 272
925 1.820146133463233 -0.2567798914626741 13.813109398887596 159 111 91 0.58396204158767195 92 530 6 299 87 1031 46 231
737 0.18637168140134835 -0.92515331178291682 11.748834014067267 216 171 142 1.3012913688879728 72 587 19 608 61 561 2 842 49 651 83 789 57 1072 82 509 84 327 28 291
994 1.5736439026809639 -2.7668254070296832 15.17170539352262 143 126 111 0.5697904109527564 4 659 23 592 18 393
796 1.7138304329569096 0.32254058507234384 14.06066414027079 6 3 9 0.067515968489248263 77 134 91 309
255 1.5379525824265277 -1.4655354789649495 12.536067118198202 5 5 7 0.034504012438756018 12 733 32 800
1053 -0.93265884392428544 0.62007279665120218 11.949145698821827 125 85 75 1.439717643990498 92 840 95 432 50 533 44 792 75 567 2 727 19 446 61 357
926 0.66455842670044718 -1.1023471795834285 12.021521965826871 43 11 5 0.47319274901208058 50 148 92 499 6 814
1024 0.31616143543093705 -0.29555058676583873 12.277878727028927 182 136 112 0.32246323652322811 4 680 23 437 18 296
897 -0.85151136070729183 -1.0437729141979655 11.775746094548644 173 142 124 1.3683788564759947 79 697 99 632 87 1128
