# 3D point list with one line of data per point:
#   POINT3D_ID, X, Y, Z, R, G, B, ERROR, TRACK[] as (IMAGE_ID, POINT2D_IDX)
# Number of points: 389, mean track length: 3.9074550128534704
256 7.341904537859028 7.4746905430003174 27.190990044173731 154 166 182 0.42346440200273866 69 1482 56 3549 31 740
255 -1.1398361607991379 2.20714141141401 19.726153143450976 251 251 222 0.62913016137435629 32 3430 56 3353
254 -2.2438101908176766 2.1626780118201743 20.26636857765612 224 199 197 1.6486906012518894 32 2987 56 3341
252 -0.061657907218905919 2.2698161254909244 20.900489614972848 207 184 176 0.48027685130558295 32 3423 56 2908
251 3.4806206949240015 0.82276180770153762 27.625643291699756 72 74 92 0.76523700402594697 69 376 56 2871
249 -1.5360231257111567 2.0415069790858049 16.2335156375037 200 111 103 0.41332716553391785 25 1046 32 3538 96 854
247 -1.7187132316004781 1.8068822729831457 16.433183606724253 100 67 49 2.087566588863377 25 1042 96 816 31 854
246 -1.8758026055078625 1.6457186176804368 16.604147001844211 184 175 160 2.2073265268865305 59 1221 96 815
245 -0.61529359164852815 0.51336052517726716 15.711600461170107 185 116 83 1.4470667236134795 32 2963 96 511 56 3139
244 -2.423929149506038 -0.6979574493114733 16.504551950935863 176 142 133 0.76192479282277947 25 743 96 487 31 471
243 -2.5807905408582807 -0.53883675819268373 16.291000443123522 215 170 146 1.0998837731722915 32 2915 59 566 96 624 69 1281 47 131 25 847 13 553 15 480 6 946 40 522
242 0.72332792511651101 -1.5355761701189321 11.672100962692156 65 44 34 0.47591359107715731 86 665 59 979 40 636
241 0.65093522497851564 -0.34363262947495071 16.37148962164348 244 204 178 0.70754363818860688 24 1352 59 1212 66 1392 57 1221 100 1805
239 -2.4819063949554372 -0.67414691053502274 16.091884662272392 99 44 37 1.1084091292151264 24 1110 59 830 6 1993 41 1773 57 1072 100 1628
238 -3.5727068421322365 -0.60554350810875002 15.812669800115438 68 51 50 1.7983645340070697 24 1490 86 1739 59 1336
237 -3.3727829474992093 -2.992368145583054 17.233006634137944 160 123 107 1.4672932385410535 24 1340 86 1363 59 1203 96 713
234 -1.3831965842630247 0.46697154149931441 15.109272389954381 195 140 127 0.13095187831342425 32 3224 59 844
232 0.45065078282252086 -0.93142230182122232 15.962121336319308 156 119 107 1.2891253237818812 24 833 86 121 59 555 13 545
230 -1.5046439052064324 1.7688967089074019 17.532432790187517 217 186 166 0.62052302947258986 32 1442 59 162
226 -0.63471149904505531 -0.70028635185300203 16.098048129056178 110 49 20 0.076284448515187869 25 979 32 3190
225 -0.76967644995928564 -0.71288660305266338 15.925392348956811 203 137 105 0.6694360395854797 25 909 32 2905
224 -0.051951004393395513 -0.69411773565126356 16.764538813653019 124 100 75 0.67995237017592114 69 861 56 1072
222 -3.1423101057278435 1.2119385146844006 17.150942306320498 214 149 111 0.65922540494796267 32 3234 15 836
221 -1.0736133594765092 1.6824150338225898 15.59479938748202 250 235 216 0.51168305731067065 47 203 15 716
220 -0.040165125397896149 -0.87192288449830646 16.831288554624773 99 65 44 1.0457751959687578 69 1535 44 1029 56 3604
219 0.91256059044550575 -0.72371173410003242 16.997558780912431 192 138 111 0.73653497045850636 86 1740 44 979
218 -0.64356221379469203 -0.096215284522969999 16.389472932487731 201 130 98 1.7108291932553961 13 1069 44 900 40 962
217 -0.6403840758549243 -0.099527757808813025 15.855447505116826 201 130 98 1.5852478794167135 13 1068 44 899
215 -0.0034305045074053764 -0.13648684181591508 16.459292748837989 250 208 184 0.46456534608919875 13 940 44 584 14 35
214 0.099726752491723331 -0.69863621221199368 16.441094069867273 102 84 76 0.65524219983185983 69 1470 86 1370 44 582 14 86 65 974
213 -0.5734120854732786 -0.46313288686412968 16.2930672970014 241 179 156 1.1388058146772191 69 1376 44 395 66 1185 86 969 99 1522 4 1177 65 863
212 -1.5015427764981502 -0.5136260231100932 16.523857826051227 252 199 169 0.35463151074738047 69 1375 44 393 14 29
211 -3.1602197395728773 -1.2470517428588419 16.278007011847773 181 134 110 1.4527529956105005 13 1024 24 1520 25 1112 86 1733 32 3680 59 1334 40 938
209 1.0947763554099093 -1.1255433248780613 17.070994833909602 211 130 85 1.9098172768541937 32 3597 24 1488 6 2363 41 2557 57 1449
208 -0.36550040014303753 1.337897471939844 15.934032791761874 0 0 0 2.4917441927425634 13 751 32 2990
207 -0.15850566661860813 -0.37499889126116515 16.5342472026576 226 140 95 0.34657624180350349 32 2356 24 331 6 954
206 0.61777246116833107 -1.015505281715116 16.167253461779502 123 86 65 1.676157918693282 13 1027 86 1534 25 1099 32 3630 69 1498 47 754 24 1487 44 892 15 1035 59 1283 66 1450 41 2364 31 865 99 1676 4 1283 40 940 57 1387 100 1920 6 2327
204 -1.0388551324461215 -1.2122370208899089 16.043262748582926 228 181 158 1.5674921875059205 25 1140 86 1810 59 1412 65 1095 40 1002
203 -3.0262464729212457 -0.56132571842093637 16.408173815093367 195 148 120 2.2105475861422583 13 1065 25 1127 40 975
202 -1.1734341481245172 2.3749798783159983 17.555444273547607 179 129 115 1.0587612419743511 47 785 24 1502 40 947
201 -0.21418590206928537 0.36721410510038183 16.493279933498368 225 178 160 2.3843535564836325 69 1502 44 905 66 1455 40 943
200 -2.7469543984849967 -0.98841360586358162 16.00887597422679 116 83 60 1.2173621046393082 13 1025 69 1514 96 894 40 941
199 0.88701965566632623 -1.1231618301598836 15.656015332613398 169 128 106 0.74573949955478469 25 1114 40 939
197 0.2173806008512626 -0.98511126847995589 15.888248958634906 97 68 50 1.0952755330275608 13 936 47 713 1 457 31 815 32 3504 40 858
195 -2.2057721210975987 -0.85243163212672912 16.110951544228691 212 171 151 0.71004886148937496 13 728 1 49 2 564 40 737 83 803
194 -1.061055054603395 0.4520765677919813 16.456884874675733 214 165 158 2.0723230112014588 25 850 47 435 40 672
191 -1.5007872583055442 -0.62607290036461993 16.173166805196008 217 166 137 0.51768283109622715 13 194 56 2834 40 524
189 -1.6178639329630928 -0.58192931205090626 16.391273148062968 171 116 88 0.6190295649035098 13 216 25 750 31 477 99 998 40 224
188 -1.8972940366152748 -0.58735128475388687 16.368016586761382 165 129 111 1.1683328669535744 13 212 69 856 40 220
187 0.048649835563562303 -0.77821271321846019 16.299699540183667 58 32 17 0.47612517235944535 25 595 31 194 40 206
186 -0.31427913097785465 -0.71027332917862807 16.371854678684553 150 112 91 0.27429765719142457 69 300 31 478 40 205
184 -2.1822025277287587 -1.0347636022095688 16.063171368384339 127 91 74 1.4129896797350288 69 1469 25 1030 32 3506 69 1433 47 711 13 989 86 1369 59 1208 66 1389 6 2259 2 759 1 456 42 798 9 81 40 897 100 1802 45 720
182 -1.0120466372675809 0.52631489226666561 15.652393786005987 235 224 220 1.2463607803502572 86 1745 32 3662 59 1373 56 3582
181 -0.99933317852176995 -0.68779936553793142 15.856211934785843 252 206 183 1.5800486187331275 86 1734 32 3660 25 1116 44 974 96 912 56 3579 14 166 31 868
180 -0.060445776307789814 -1.2348597142055977 15.848222410606667 243 194 172 1.6244005545067199 25 1113 32 3658 24 1521 47 801 31 864
178 -1.5786660367354939 1.6041644307720395 16.327898973712596 239 229 204 0.89867290989546422 25 1041 32 3609 31 853
177 -2.3654724835004961 -1.215037011941005 16.062101988342839 243 201 177 1.6042111143931823 86 1368 32 3596 59 1207
176 -2.1704565816859134 1.5194330105263849 17.227960878344138 156 83 85 1.8236549879361168 25 1038 32 3527 15 1007 31 803
175 -1.8997334922406146 0.75148623567236206 17.16911234787505 240 183 165 0.85844455302387779 86 1380 32 3521 15 1004
174 -0.31414461988437459 1.58873234579504 16.930625819150279 211 198 201 1.4709494186845236 25 1043 32 3422 96 757 31 829
173 -1.4949368194873147 -0.48607758440966836 16.321844577193698 233 187 164 0.66798310336524613 25 911 32 3393 40 664
172 -1.9588427457382391 1.3642296511594612 17.264606216668948 221 164 147 1.2224776322114099 86 706 32 3236 59 1008
171 -0.23703420252680091 -0.69814495062493531 16.620827737396887 238 218 212 0.76881443221173651 25 981 32 3192 96 733
170 -0.63190565141415989 -0.71424860666746603 15.621518280112456 152 87 55 0.85417211313171348 86 964 32 3191 59 991
169 -0.16306396173354695 1.3145536865314222 16.382091562066091 208 151 131 1.5922620585375671 25 856 32 2989 24 1141 2 595 99 1286
167 0.27901451253789977 -0.65751588720643439 16.500877754305606 192 157 145 0.88524610052069708 25 752 32 2323 99 980 40 669
166 0.2827785060090815 -0.64310975081909805 16.41645171418093 192 157 145 1.1330096947834418 25 751 32 2322 15 488 99 981 4 912 65 536 40 668
163 -2.0102881892011544 0.66199650812137556 16.201236221831195 190 134 109 0.93673908470044509 13 848 86 1204 44 401 14 89 25 1034 31 758
162 -2.2748860080420967 -0.71386216632642663 16.307423997792981 89 80 72 1.1002764357455566 47 716 86 1197 32 3391 24 1254 44 383 15 927 59 989 6 1994 2 722 1 329 31 816 40 859 83 1073
161 -1.2807896367825915 2.8295747171783412 16.752135601806849 224 190 180 0.35480652413557268 69 1397 86 1010
159 -1.7113896344001944 1.7201643043917572 16.333864090248699 165 104 109 1.2118137906111619 13 949 47 200 86 991
158 -1.8707778326537299 0.14767994632161646 16.677665757209418 209 156 138 1.5858170867048926 47 559 86 974 59 998
157 0.42383886886779565 -0.67320869551569795 16.482588865765567 97 60 48 0.97523056602246949 13 742 86 972 32 3193 25 913 44 86 96 622 2 656 1 243 31 750 99 1518 65 535 4 1082 40 739
156 -3.0755029597269514 2.7381412261575648 17.727950724427959 129 96 77 1.8054655964521762 69 442 86 719 44 124 14 57
155 -1.530884164906098 0.32240496379206901 15.946827791744928 179 136 120 0.49759843092318018 13 232 69 1142 86 688
154 -1.0449592662928207 -1.1982548284992081 15.973630497352962 249 190 165 1.6404574931610221 47 855 13 1090 86 1811 25 1139 59 1413 65 1096 40 1003 45 845
153 -2.7767196354647763 -1.0194448271827325 16.120197939126736 139 103 86 0.57369023799228969 69 1515 13 1026 40 942
152 -0.61902013386624888 2.7099364646695774 16.92393628739454 212 146 124 1.0659781782061488 47 736 13 1004 40 825 45 771
151 -1.852022134939239 0.76548518491243411 16.320646366555362 233 176 149 0.38170956243042597 47 720 13 995 24 1463 44 756
150 -0.43282160758287003 1.7434982698388442 16.181906033200157 170 87 95 1.3165653449520967 47 730 13 950 24 1431
149 -1.2104538463290919 1.2454364474512118 16.290256777584727 230 187 168 1.0712206732668468 47 722 13 946 86 1394 32 3529 59 1118 41 1815 31 825
146 0.1686312231224677 -0.67473336410909113 16.202459053548324 109 93 78 1.5156776457047436 47 639 13 935 56 3314 40 900
145 -0.55771711535015311 1.5965003404818845 16.472357402079929 221 203 186 0.044922630614037472 69 1306 13 864 44 119
144 -0.55228989665656214 1.6015838167861738 16.545025045297493 221 203 186 0.24465010598581297 69 1305 13 863 24 1369 44 118 57 1236
143 -1.3759335337129706 1.605313457201492 16.381417085608312 235 210 183 0.47863889254595138 47 665 13 859 86 1229 69 1388 24 1367 44 424 14 95
141 -2.0405550380941153 1.5559704219575274 16.94467576545901 107 68 60 0.54067892615646873 47 656 13 851 86 988
139 -0.18165141744179816 1.3978553989417506 17.171593341264551 178 123 109 0.47436137096647724 69 1387 13 752 86 996 96 644
138 -1.716798073132233 1.4798047474604099 16.705944363311737 157 74 72 0.32184588187292529 47 571 13 750 86 989 44 107
135 -0.26083248819141469 1.5980327958381677 17.226340385741498 180 164 168 0.30881020066824644 47 183 13 587 86 193
134 -1.9142561109426131 1.6064937835209872 17.116072227909491 195 192 173 0.37599240105799875 47 179 13 586 86 707 32 3429
133 -0.29546144561623167 -0.57608955854793975 16.404581436670654 175 131 120 0.86366245276489317 69 860 13 558 32 2917 66 169 99 522 40 527
132 0.2258123220853232 -0.74496320653024806 16.630922589428625 68 45 27 0.97216862868118825 47 116 13 546 86 123 69 305 32 2321 56 1032 1 68 2 565
131 -1.0310278637076984 1.3504944874040283 16.001008271189889 254 182 189 0.88291235954162151 69 1155 13 276 86 188 31 624 99 1285
130 -0.70427724394804603 0.90306129166608506 9.120711591014846 134 70 65 0.39801821211898031 69 424 13 270 24 1269 15 946 1 262 99 1541
129 1.1019288636617262 -0.92986478457136201 16.929923294641576 185 150 131 1.045791434282745 69 307 13 201 24 1107
59 -1.2336612099563207 1.4507778324149223 16.313075104844017 187 119 106 0.97441698846621339 69 1389 47 573 13 855 86 1227 32 3419 25 999 24 1271 44 110 15 955 96 753 41 1816 31 805 99 1595 57 1101
58 -0.44756701786513409 1.2740917814246537 16.123138015674428 226 173 157 1.477374768605457 69 1386 47 659 13 862 44 416 66 1198 1 420 2 736
57 -0.65814099675001037 1.4541403436204181 16.521107087696592 184 122 117 0.83145687803563351 69 1385 47 660 13 861 86 1230 32 3531 24 1272 47 575 44 113 15 957 14 48 2 739 1 424 31 828
56 0.18899054864976919 1.1075245110055882 16.601606182379566 239 185 159 0.32364357703561275 69 1383 47 661
55 -0.1024484371264423 0.57467765845375562 16.49433467170952 222 163 133 0.529972065582208 69 1381 47 652 25 995 13 849
54 -1.495525927345136 0.67607634557023089 15.924128275599857 217 162 147 1.0324131430403174 69 1380 47 439 25 920 13 577 44 404 31 759
53 -0.0081250907098002444 -0.49030641134648661 16.563964668721681 238 204 189 1.2112990825547605 69 1378 47 549 25 1032 13 846 86 1201 32 3510 44 583 96 847 66 1320 6 2158 31 785 65 864 40 810 57 1077
52 -2.8920482550426487 -1.0019484958217286 16.173920314295522 137 93 71 0.094381960172759238 69 1372 47 415
51 -2.8920482550426487 -1.0019484958217286 16.173920314295522 137 93 71 0.094381960172759238 69 1371 47 414
50 0.57775172441211686 -3.7506484062639598 16.488550478982866 19 11 8 0.17006895121569071 69 1356 47 622
49 1.1499540032442483 4.0268187527232362 19.674436679223771 193 190 200 1.3185560740179771 69 1313 47 236
48 -2.298009537379496 2.8175273224626745 17.352391841987952 173 133 102 0.75856498389068272 69 1310 47 214
47 -0.35342540300492054 1.5701186120864894 16.588770132614268 201 183 182 0.93710533350794134 69 1307 47 577 86 997 25 1044 24 1276 31 830 99 1597
46 -1.4753287830862853 1.4504406332901487 16.40382480444007 178 116 113 0.83461885419895521 69 1303 47 572 13 854 86 990 24 1270 44 109 15 947 41 1361 57 1099 45 638
45 -0.46389839219234313 1.4361695458783008 16.616404004187 177 104 98 1.0453301494647929 69 1298 47 576 25 935 86 995 24 1273 31 764 99 1539
44 -2.5134925792758294 1.4584563773045718 16.914165808484203 236 189 158 1.2740165780599899 69 1297 47 446 86 703 66 1058
43 -0.50815872613636459 0.68700467928618991 15.988926275541688 202 150 136 1.0365699834732929 69 1289 47 650
42 -0.60053438864700959 0.57783297970786796 15.708177701202747 183 130 115 0.81316673235261416 69 1287 47 562
40 -2.7342788307776797 -1.2882633256847205 16.073295046365335 219 175 150 0.62134418419675663 69 1270 47 402 13 534 40 654
39 2.2847364418299572 -3.1380551705589483 17.81663846086866 32 11 6 1.5837202973893723 69 1257 47 62
38 2.2847364418299572 -3.1380551705589483 17.81663846086866 32 11 6 1.5837202973893723 69 1256 47 63
37 0.17266404766382684 -3.4031198602293418 16.281722993667472 42 21 16 0.240805969379292 69 1247 47 45
293 -0.96279793591039042 -0.59288774414855083 15.721280630790321 198 156 134 1.1419167916899522 6 2396 41 2667 57 1436 100 2047
36 1.8372721010476856 6.5762748837573879 20.201125398083537 192 205 215 0.049032099227784592 69 1199 47 299
35 2.5882977271998988 6.1245037755859713 20.598243206388485 102 109 117 0.67509580526836133 69 1193 47 275
34 2.3923935525752507 6.010441770477879 20.464012473342695 125 132 140 0.64409869746455584 69 1192 47 271
290 -2.2839364593233955 -0.54547993710261189 15.685301683416808 185 145 122 0.59534235594859819 6 2156 41 2132 57 1218
33 1.8547348506402725 5.4064673877057245 20.827361266740603 106 116 128 0.36251157921508481 69 1182 47 254
32 -3.9762457166947214 5.2035162317747439 20.455305816130217 100 107 115 0.22875409411448666 69 1181 47 251
288 -2.4886249832865079 -0.82227492718866813 16.178385441020996 172 138 113 0.8949406005778483 6 2149 66 1179 2 721 99 1396 57 1065
31 -1.5938900664530278 0.93083309863442787 16.61539108476552 223 174 158 1.1689614437193014 69 1152 47 165 40 677
30 -2.13416196885803 0.49104666149066678 16.220463109902269 254 206 195 0.48728835733359543 69 1144 47 144
270 -1.8246920072119277 0.78444508348361353 16.120883578721838 221 154 120 0.37590486838451231 86 1381 14 90
13 -2.334446183893474 0.65935724322837153 16.205239772253176 254 199 187 0.60548804854398386 69 890 47 159
269 -0.53823785878096042 2.8268861365426567 16.912748577116826 176 109 90 1.3574686253600268 25 1080 14 63 31 834
12 1.766798789505083 0.36856389306859932 18.940819027210125 226 188 169 0.47798627666527538 69 887 47 155
268 0.24490890680472219 2.2158335116871868 17.417949832400389 187 128 90 0.65718439510517612 25 1003 14 59 31 808
350 -2.0945282089744515 1.2130624826153327 16.30260221294548 164 111 95 0.57556377980674545 2 588 1 258 42 490
93 1.9830641709013783 5.6160523036666561 20.348249458615939 117 126 133 0.16344434898280802 69 1507 47 767
351 -0.18394033122119485 1.8540650428609937 17.597516748278341 176 122 110 0.42903748816658643 2 596 1 268 36 107
94 -1.0058543909120874 -0.68379444619765117 15.992121901202658 249 201 179 1.7657166445943924 69 1518 47 779 25 1115 13 1050 86 1735 32 3661 24 1523 44 973 96 911 56 3578 66 1525 14 165 31 867 4 1301 65 1033 57 1435
352 -1.078575746823274 2.7111571724206533 16.806644624266376 232 171 156 0.57286332362147807 2 678 1 274 42 639
95 -0.64360381977102499 0.055880867315218172 16.07392800744816 192 136 113 0.89820261091317377 69 1519 47 806 25 1118 24 1526 66 1527 31 878
353 -1.1397961014051277 -4.3719743247563052 16.136686485249875 57 41 36 1.1871628982051283 2 711 1 314 42 787 9 5
96 -1.3233713150237389 0.78957171647234192 15.566525276504361 201 146 141 0.88793487639311142 69 1521 47 783 86 1749 25 1103 32 3638 56 3536 31 850
354 -3.0949276054685257 -0.026094901994627794 14.406221543693855 215 140 111 0.007918514303575248 2 724 1 331
97 -0.72932467038960669 4.0056736445865759 17.786602952000525 217 175 153 0.88585312392970428 69 1523 47 789
356 -2.353917759937004 1.4541018628313369 18.035447990909063 219 168 147 0.4751882883554725 2 732 1 347 36 1599
99 -0.16412297165784145 -0.8408987368963009 15.985628419555386 152 113 93 1.9874810579212312 69 1534 47 818 25 1128 86 1777 44 1028 59 1391 66 1541 31 891 65 1074 40 974
357 -1.778452386142289 1.4600196748311201 16.679112714058071 127 50 41 0.5438969197846899 2 670 1 352 83 1041
100 -1.3224957490776366 0.10864456425892167 15.772594710532109 202 147 117 1.1408262836481948 69 1537 47 805 25 1117 86 1742 14 168
358 0.850008946107355 1.4761848385523957 15.763635569427054 174 126 104 1.6289335549457107 2 675 13 755 1 356
101 -1.0024862144866553 0.53832154980484281 15.823660261470247 241 197 190 1.3071337887943353 69 1540 47 807 25 1119 13 1051 32 3663 86 1744 59 1374 24 1540 56 3581 66 1528 14 169 44 1035 31 879
359 -4.0981335786879587 4.6743295687225723 15.869732428040546 59 67 78 2.0282052349375892 2 745 1 364
102 -0.237719412351522 2.7206583339562749 16.625502510547907 213 167 142 0.76196369603249026 69 1546 47 823
360 -2.1431749188110696 -4.3437915541835741 15.711484145721876 151 124 108 0.38012712771845331 2 710 1 390 9 2
103 -0.37151225801092269 4.6951925530571463 18.498377399873263 203 153 130 0.54418070072336389 69 1548 47 811
361 -2.1368333234545624 -3.8613973200535066 15.516585727333473 88 68 56 1.1003962004657468 2 753 1 395 42 825
104 -1.9806040680502828 -0.87780738972589922 16.134837114579724 173 125 102 1.3320585618476033 69 1558 47 832 25 1126 13 1082 86 1776 32 3682 24 1537 44 1027 59 1390 96 924 56 3602 66 1540 6 2426 31 889 99 1705 4 1334 65 1072 57 1464 45 836
362 -0.33407077572721533 -3.3969146486462685 15.838389300568007 65 47 35 0.70980244308228135 2 754 1 399 9 75
105 -1.9811011981129147 -0.87988457843892953 16.163191265978394 173 125 102 1.2707532942547497 69 1559 47 833 32 3683 24 1538 96 925 31 890
363 0.74796155755834692 -1.2112687762162568 15.731253269009793 162 112 95 1.0313801149749895 2 653 13 840 1 409
106 -1.2053938025801958 5.0560368774196212 18.028210156713818 250 255 249 0.27337225359891487 69 1567 47 846
364 -2.4149179312201445 1.3110586444713943 16.295726585089593 112 58 32 0.53885729672547922 2 731 1 418 42 805
107 -1.045636423668953 2.9172670371384002 16.813717796975386 241 198 192 1.0228659016206496 69 1573 47 838
365 -2.2797740439310048 1.7321854111096033 17.02236065872005 249 184 166 0.62655672359932069 2 737 1 422 83 1140
108 -1.8690104314468958 -0.60266173185244021 16.37586311828645 185 125 101 1.7394555318144418 69 857 25 322 32 2348 96 152 31 474 99 1249 4 711 40 221
366 -0.96631179958317359 1.4964449583129444 16.550688819969256 109 55 40 1.0977586065432992 2 738 1 423 42 765 92 609
109 0.39307892444374848 0.67536181240934856 16.523900645567853 254 198 177 0.90089715572890761 69 364 25 385 13 240 31 257
367 -2.7344966190144353 4.9642831379708658 15.613082013436387 71 75 87 1.8748983455483708 2 775 1 438
110 -0.48340382902401779 -0.58278607876167443 16.38516892146054 186 109 76 0.82714341951295045 69 299 25 607 13 218 86 137 32 1124 59 94 96 154 31 601
368 -2.7740566241044786 -1.3038406165604839 16.452891536471167 255 224 198 0.075058904792848755 2 758 1 455 9 109
111 0.45283340270622952 0.73049333851638443 16.456441782791497 210 136 113 0.59417534360392865 69 893 25 769 13 241
369 -2.090844615120881 0.37167301016368498 16.342914074392692 255 195 182 0.80537167076502392 2 784 1 462 36 1715
112 -0.53896567153974995 -0.64376360015841438 16.352962188670002 216 158 127 0.69408115108476487 69 859 25 848 32 2916 31 597 40 665
370 -1.9393535198012837 0.50854929549562267 16.697369778144189 165 89 66 0.36338544378094562 2 786 1 464 92 604
113 -1.3671622158647265 1.5526073761326453 16.400481809194218 224 199 170 0.9158513125616573 69 915 25 859 32 3243 15 715 96 648 31 763 99 1543
373 -0.88667751342637424 1.2192142831638113 16.177380721078947 226 166 153 0.6702835050550956 2 767 1 469 9 117 92 608
116 -0.51978884938198955 0.69900763581570191 16.10815237857296 196 135 116 1.0249355192836671 69 1288 25 922 56 3140 31 613
374 -0.4169497081727751 2.4653476572321837 17.171265584775028 135 81 58 1.1506508102818986 2 796 1 477 42 843 9 120
117 -1.7537621184333454 1.279676882254891 15.640183781700276 207 139 120 0.17261844925737818 69 1384 25 925
375 0.64150562558870239 2.1797217882502045 17.163523745826364 168 120 97 1.094179643416374 2 741 1 478 9 95
376 -0.57984078960461782 4.1088542107302599 16.356338952232939 148 102 79 1.1240696538215642 2 799 1 481 92 639
119 -0.23264589950032907 0.74846132946394195 15.977059924100985 230 158 133 1.0729476515496243 69 1474 25 1035 31 822
377 -2.5476772678427668 -1.0397234934937005 15.834648059107648 137 101 83 0.71409229635458449 2 780 1 489 42 829 9 110 36 1789 83 1162
120 -1.579347982670112 1.6017721561301885 16.443235421480999 217 198 174 0.9072437156679215 69 1302 25 1040 13 857 47 664 86 993 32 3608 44 414 31 852 45 696
378 -1.7283427847010613 0.59132775374399693 17.069370477489517 253 206 196 0.65299229696154948 2 787 1 491 92 568
121 -2.2067450279384291 -0.50376949629824552 16.514859575538903 234 189 166 0.82437212492581768 69 1472 25 1067 13 937 86 1371 32 3509 44 748 66 1391 14 28 44 581 31 845 40 860
379 -1.1923169544773444 1.7110194844265059 16.824831869532833 241 237 210 0.3282884950285756 2 792 1 494 9 91 36 1796
122 -1.8831712666434217 0.804046738310493 16.84852698610084 233 164 135 2.1837414737339484 69 1503 25 1073 40 864
380 -0.79868285623488389 1.6728138861465736 16.550402529121211 225 210 186 0.58788474412148117 2 793 1 495 9 93 36 1797
123 -0.76674709073261904 1.6573018795728078 16.43171275461712 235 219 186 1.2758904106396451 69 1448 25 1079 86 1405 32 3610 96 915 66 1408 14 124 31 871
381 0.26433698381909781 -1.3193539927197708 16.178541275768723 206 153 131 0.50382430343410645 2 819 1 511 9 135 36 1830 83 1205
124 -2.4951537311107148 -4.2956055906918662 16.879891844369649 16 11 7 0.81374611725070767 69 1590 13 1103 44 1144 40 1011
383 -1.0033755919344067 2.4544573646561116 16.756679653865845 178 119 103 0.85085192373046015 2 825 1 516 9 143
126 -1.0268807154988833 -2.0339894553587126 15.619979619828429 251 186 168 1.207780340114351 69 1593 25 1153 32 3718
384 -1.170446061237211 4.6067272526775609 16.780411741382789 121 67 42 1.3328704058711325 2 813 1 519 9 146
127 -2.3779717196838415 -0.77684473324966419 16.505270163697787 84 55 41 0.64769764092029669 47 103 69 291 13 186 86 113
385 4.4950171440233531 -0.48483938575553637 14.986037079345529 245 249 250 0.073087367688941973 2 821 1 532
128 -0.75597033265193114 -0.86187152745212248 16.045954010311288 206 145 120 1.2573918805254525 47 112 13 195 86 118 24 827 32 2319 6 887 41 346 2 428 1 236 42 459 92 89 57 168
386 -0.79162481168240062 0.88993994802702081 16.222888512726776 88 44 41 1.2803991964636083 2 823 1 534 42 887 9 140 92 682
387 0.14742350916866545 1.9125086213100038 17.107389794244035 207 155 126 0.6507571666433476 2 824 1 536 9 141 92 658
388 -1.895768781900401 -0.82161756187479573 16.009786576301209 52 17 8 0.97576494275181491 2 844 1 562 42 900 9 157 83 1221
389 -0.39852842866174465 2.9632007257819915 17.093930887397345 213 154 134 1.021738816630914 2 848 1 567 42 891 9 159 1 552
390 -3.4106812102364477 3.8761431265673831 16.148343811306116 182 192 194 0.27661026023444357 2 840 1 569
391 -2.604343793956013 5.4546901874143119 15.818957286831827 1 1 3 2.0321961083981543 2 857 1 585
392 -1.9954033632837591 -2.1197767239360812 15.511973922674008 250 213 192 0.90148330855528169 2 862 1 590 42 936
393 -1.8536333653835939 -0.69164716266296555 16.265339626006231 197 178 167 1.4212251050012246 24 845 6 947 2 427 1 64 69 1276 25 908 13 730 47 107 86 679 44 81 66 1033 41 343 31 689 65 740 4 1170 40 663 45 553
394 3.1971515033064053 6.2077806656954602 15.602814330482074 57 63 75 0.26811731525205224 2 817 1 524 42 865
395 -4.0475485351420195 2.8533971497812294 26.778771161461858 172 111 75 1.0720775213207414 2 233 42 224
396 -2.7166203597896295 -0.3024127071758283 16.612138654704264 254 205 178 0.090769966683192566 2 434 42 477
397 -0.46890598739441025 0.4959478657006518 16.164386513833172 187 121 99 0.47620842583383904 2 765 42 711 1 466
398 -0.24942249739119618 0.50489290499129791 16.393248915171185 136 68 40 1.4841897097253729 2 788 42 801 1 467 9 115
399 -0.62126532184291472 -0.0069815302310029369 16.011487095247524 143 76 47 1.4735814101292752 2 836 42 871 9 138 92 677 83 1215
400 -0.34590542113936767 -0.77941881391003576 15.998043031060719 82 37 16 0.86063618910148387 2 845 1 563 9 158 92 694 83 1222
401 -0.26068348596048035 -0.23049743611418699 16.713281300087235 206 146 122 0.46898872143037379 1 414 2 727 9 24
402 0.49896756461324188 -0.24891079696379353 17.271266195283346 207 147 119 0.30756926306322641 1 334 2 728 9 83
403 -1.8003878747289712 0.78765384844718911 16.294610028395031 252 183 162 0.50926450608929896 1 492 42 837 9 114 92 627 36 1717
404 0.56104898420425509 -1.0310281355403734 16.028961669363849 81 40 22 0.45779564563081937 2 805 42 857 9 128 83 1184
405 -1.033503593487048 -0.62106839600018049 15.772249052314349 249 195 159 1.1273786037213116 1 550 42 870 9 151
406 -1.7670672631232696 1.0679738115189545 16.229690046943308 218 175 150 0.608124638898626 1 533 42 873 9 153
407 -1.299269291112144 0.034652022706641535 16.055549789700503 244 184 156 0.57232074010473444 1 574 9 164 92 725
448 -0.28325084980809706 1.8386137104567097 15.786642728015799 230 148 137 0.057216046558512992 4 1190 65 771
450 -0.8542340553899801 2.8730569800010555 15.487782175494832 234 180 168 0.042460321165342374 4 1240 65 885
451 -1.7024630681345914 2.7753905986238165 15.641582610109245 207 137 112 0.86618121166706619 4 1314 86 1751 65 1044
452 -0.073441245512468389 -0.78937729126890788 16.057496721159289 0 0 0 1.1396659644727807 4 1336 99 1698
453 -2.4652824468003494 0.32882920447406744 16.197508084925705 229 153 129 0.095089547009813757 4 1362 65 1122
454 0.07158569524661762 -0.90535849676825142 16.214111212833345 85 55 36 2.1841884595628418 86 675 32 2907 24 1105 65 734 66 145 99 482
455 -0.30432131409179181 -1.0204352205085554 16.281203816853257 153 114 98 1.5355977880269762 13 196 40 204
456 -0.076953071637151926 -1.0922265056784077 16.187128556260312 115 81 61 1.0421545362928868 13 197 40 506
457 -1.3698181638053664 0.84292925501571259 16.395961075660292 210 156 144 0.18461697899531701 69 898 40 544
458 -0.64484092330671827 0.58348923414882137 16.478254331005566 162 119 106 1.7950141298170124 25 921 40 745
460 0.78785767953204155 -1.2222171791174248 16.953685677795495 171 138 119 0.90691900400969006 6 1601 57 152 2 426
461 -2.2135191782067576 -0.93661099051363716 16.20586365592629 63 43 29 0.77817809114861536 66 751 57 165
462 -0.077133841753694074 -0.60438499573824156 16.148786698558563 92 71 55 0.99443433034258644 66 168 57 190
336 -1.5833430179752142 1.8076005482127253 16.56844871283915 239 216 204 0.27566357953411791 32 2513 2 475 83 662
79 0.29265460694971351 2.332850784459791 17.047699215490038 180 139 109 1.2851676612384064 69 1452 47 735 86 1233
463 -1.3285111319511524 -0.94877760081049622 16.0442248322829 183 126 99 0.85794767121060911 6 1621 57 640
447 0.96903298886326816 -2.6467357886164358 14.116705694571598 68 50 41 0.82674125852434099 4 1049 65 721
349 3.1540739873992893 5.92529746569718 15.691878735717301 1 8 16 0.80619418109532026 2 355 1 160 42 341
92 1.2295783933118347 5.5343310344918191 19.875679237910688 189 193 205 1.4046016794282283 69 1506 47 790
476 -0.64359541849812907 0.090890330752114001 15.476738019135247 199 142 129 1.2009821335160882 6 2365 100 2005
348 3.1540739873992893 5.92529746569718 15.691878735717301 1 8 16 0.80619418109532026 2 354 1 159 42 340
91 -0.78086257629133971 0.85461800815045663 15.897370890133368 154 102 92 1.6225642833809755 69 1504 47 761 25 1074 86 1559 44 911 59 1290 96 875 56 3559 66 1499 31 798
475 -1.3371652287398295 -0.11443254434866512 15.751903067569502 147 97 86 0.37599647466184322 6 2398 100 2004
445 1.1555918740782665 0.47406860182579624 15.413419744573154 218 152 122 0.35139327680524568 4 931 65 188
347 -0.4326698202269203 3.432144180164947 16.762542365846709 126 89 71 0.57646017672163341 2 494 1 118 42 292
90 -0.93669065494289627 -0.14783006054722739 15.707868399967346 237 175 149 0.44214781418927329 69 1501 47 758
474 -0.16678732676186234 -1.1970438214665473 15.83186935655201 236 194 177 0.76555857147111006 6 2359 100 1999 41 2556
415 -3.6517758999100787 -0.5450766335348044 18.036527091808271 161 121 113 0.35903878415562562 32 3601 31 844
346 -0.73620118494537501 3.2488515298221765 16.69440177466879 174 115 99 0.97223694153784257 2 294 1 117 42 518
473 -0.1988726023692971 -0.67352018276227621 16.735561761831224 184 158 153 0.73334406743491043 6 1647 57 891 100 1280
345 -0.076223871966352122 2.1451361442534504 16.337496285065036 200 142 122 0.32923915393507358 2 606 1 110
88 1.0792420832926957 -4.0255438986186816 17.344051464356053 91 77 72 0.55065138406650194 69 1492 47 774
472 -0.57219168546534993 -0.53745464696450207 16.36687626359705 180 132 115 0.042943516744931562 6 2157 100 1279
413 -1.8923645112448675 1.5816111895373324 16.896077627039588 173 168 155 0.39271739926796112 25 933 31 804
344 -0.083959476158185498 1.4882278085473493 17.201136014658886 129 79 68 1.5041304481922573 2 466 1 100 42 618
87 1.0792420832926957 -4.0255438986186816 17.344051464356053 91 77 72 0.55065138406650194 69 1491 47 773
471 -0.054935109628078724 1.4192263099865472 17.206062408160811 164 111 98 0.76208653679910376 57 688 100 916
343 -3.1606569065388785 -0.87113645512957538 15.48782159602165 108 71 53 1.1030731493908315 2 140 1 48
86 -0.83625820235905335 6.2618950013870336 18.371792205939034 59 83 131 0.16146189829486307 69 1485 47 743
470 0.50049372738181508 -0.50153485418687849 16.347824822494097 196 151 136 0.79687125100294554 57 892 100 806
411 -1.4804827840180457 1.5601539282064505 16.355043694367712 148 106 84 0.010258223754484227 32 1441 31 303
342 0.22214452019944217 -4.0700873612028916 15.794133870403975 53 35 23 0.18408149097909299 2 30 1 19
85 -0.3403279496148639 3.8803186219092689 18.207308503169358 197 152 129 0.41788343262851402 69 1480 47 740
469 -0.15823131208384225 -0.7986314917471169 16.230497735284406 65 43 30 0.73350477094504263 6 2427 57 1477 41 2785 100 2105
410 -2.0145539628916875 -0.67276352897326663 16.589062252475291 63 34 32 0.92216344304286058 25 590 31 179 99 994
341 1.244605606019775 -0.50764911274830293 16.871390725831517 149 108 90 0.90987861233844891 6 2265 2 764 1 413
84 -2.2259865357874111 3.9766564313448884 18.972175106055087 213 167 141 0.029274325326818937 69 1479 47 739
468 -1.0099613149477082 -1.0391629984211521 15.761862628163746 176 119 99 0.643075881395202 66 1390 57 1305 100 1919
409 -0.21935217539923876 1.0330396403317916 15.069547954809639 144 110 82 0.52172652968661792 1 512 2 807 92 653
340 0.39615425793409176 2.7093973360677821 17.428904100747936 137 94 72 0.90650771348368575 32 3267 2 744 1 430
83 -0.33539687027589787 2.5884231580162314 16.736702770405333 240 182 160 0.36155650817605223 69 1478 47 733
467 -0.70721003371820812 -1.0072483498009346 15.607610120412801 186 138 116 0.76309167454176208 41 1776 57 1066 100 1617
408 0.74794949030396884 1.9001765640646084 17.213953353924534 154 116 79 0.17224214960365558 1 358 92 577
339 1.537208210415909 0.32426046714978307 18.16701515233321 157 101 78 1.4850934275615491 6 1014 2 446 1 88
82 -0.88499954567518047 1.2303818623092693 16.207350650827969 234 191 179 1.1067648953563369 69 1475 47 724 25 1076 13 997 86 1560 32 3530 44 602 59 1216 56 3455 14 119 31 826 99 1632
466 -1.6943474657046127 1.3931194609475823 16.259107347559937 98 53 38 0.43567480691163873 41 1360 57 916
338 0.97911223958836879 -2.0722480308742597 17.064792794560276 99 60 43 1.5234147836424843 32 3502 2 717 1 454 9 18 42 749
81 -0.79842279260068572 5.3090176979202495 18.098488481351083 65 86 128 0.041788399728413507 69 1458 47 680
465 -2.1294218232411 1.4209051773603785 17.450265360470873 148 87 77 0.74314893989284603 66 1194 57 915
337 -0.35711599770316915 1.7651557892300405 15.993241725232528 161 92 97 1.9500138825096665 32 2520 2 477 31 318
80 0.69459749374915236 3.3417881473295603 19.04701467891984 188 129 114 0.054010294526493162 69 1455 47 737
464 0.36194504307442765 0.79470223861976741 17.235325040385518 165 111 91 1.08732900265027 41 473 57 677 100 855
444 1.5559780767809814 -0.21287629804961058 15.186440825960124 114 65 46 0.23705905139169892 4 405 65 164
443 -1.9602076100427019 -0.64164564260208656 16.294165122679107 84 67 58 1.1318341882339533 4 710 86 134 65 151
442 1.0191030606737674 -0.91826283901187777 15.12309692836668 155 98 68 0.047829746717389737 4 683 65 133
441 -1.1351194395561186 -1.049416743870077 16.363592979248594 208 133 101 0.24522065885590727 4 691 86 117 65 125
440 1.3045305462474248 -1.1069834842547617 17.168275283912998 189 116 84 1.4050270133803113 99 1578 4 1260 65 930
439 -0.25162616099798862 -0.67333518943500559 16.322763572265291 185 170 171 0.41462134425406111 99 1400 4 1081 65 743
438 0.19773600444201289 -0.66505692055040122 16.494324881342649 73 56 62 0.23751713494118426 99 524 4 911
437 -2.1817417935751551 -0.87403023480084763 15.981176570608087 65 35 18 0.39338237364800083 99 970 4 708 65 150
436 0.46709832989227801 -1.0692005654630339 16.015095596515827 117 68 52 2.0543280835299647 99 1225 4 698 65 131
435 -0.017679532962542432 -2.9947302889764442 15.086065746533182 1 2 0 1.1458839566154213 99 1684 4 1322 65 1062
434 -3.166943139851742 0.50429894846252599 14.340107273607575 228 153 115 1.270878042815871 99 1585 4 1226 65 871
432 0.16370410694728665 -0.96763362867804248 16.255628921937429 89 60 51 0.78008670134511371 66 1318 4 1166 65 735
431 0.78887949053654205 3.1531799600215251 13.78670868410909 200 204 212 0.64597456026990463 99 1549 4 981 65 587
430 -0.81736525409506311 2.8757969882297805 16.47079252986499 238 182 175 1.1512067034354716 66 1222 4 973 65 777
429 -0.72361220846629415 1.564502148819523 17.039860372827373 194 179 176 1.2421973956066374 66 1062 4 958 65 567
428 0.29028393890893539 0.77239976099494467 16.793155973833095 204 129 101 0.2650417449037335 66 777 4 936 65 198
427 -2.5732037868599158 -0.51303169273688021 16.201089197114992 204 137 108 0.89827078587283571 66 161 4 918 65 173
426 0.70186364462204576 3.1912631957568913 13.582419537897696 87 56 47 0.86029955111639023 99 1455 4 812 65 273
425 -2.6507162759738292 -1.0279254443823196 16.093676931587524 81 54 38 1.0445905875862178 31 842 99 1655 24 1486 6 2361 15 1072 66 1449 4 1282 65 1001 57 1386 100 1925
424 -2.8670175966496756 -1.2433698218417373 15.821039594701801 230 160 107 0.62273964521608405 66 1496 4 1299 65 1029 57 1383
423 -0.73896167490598741 -0.34465824650220728 16.371939230369442 173 113 76 0.97427498056177786 66 1453 99 1584 4 1264 65 975
422 -2.7888704791432537 -0.94985521972346409 18.414942018274733 65 21 0 0.2790889073269669 31 780 99 1520
420 -0.77273262469106618 -0.82566584791888975 16.207544601009502 182 124 86 1.682450138141603 66 753 99 1238
418 0.13475781204591489 -0.88638766311107764 16.180469633931409 71 43 27 1.7090025797932145 25 748 99 486 4 338
335 -1.5833430179752142 1.8076005482127253 16.56844871283915 239 216 204 0.27566357953411791 32 2512 2 474 83 663
78 -2.6115692077532473 1.8794367647658861 16.678846767839268 204 158 132 1.4061716834781721 69 1450 47 662 25 1039 86 1414 44 614 14 93
334 -0.39861682864025594 1.7018363899219244 16.687000314633615 150 134 123 0.76428858540948408 32 2517 2 464 1 101 42 496 36 104
77 -0.77087821180764227 1.6615822452764291 16.536763276534408 244 227 207 1.132321031445898 69 1447 47 729 25 1078 13 948 86 1404 32 3611 24 1430 15 1049 14 125 40 817
333 -0.57377605093487682 1.1645832845197055 16.204658411026731 136 84 70 0.61061611127016402 32 2482 2 452 1 94
76 -1.0916132440579243 1.6531588307423575 16.293176545860003 248 244 233 0.93154409154457751 69 1446 47 728 25 1077 13 947 86 1403 32 3642 24 1429 44 771 15 1048 96 898 14 122 66 1405 31 870 65 765 4 1188 57 1328 45 765
332 0.45786029657008248 -1.2297877833350819 16.347498440687154 176 130 107 0.55070816730085181 32 2286 2 424
75 -1.6400698054565324 1.2650896609790734 16.250913054625023 224 174 161 1.7068690912550686 69 1444 47 657 25 998 13 852 86 1218 32 3416 24 1426 44 413 59 1117 96 812 66 1330 31 801 57 1098 45 693
331 -0.71421730237098191 4.5452801459148038 13.563380255269216 20 19 24 0.99637074213142562 32 3702 2 843
74 -1.7402696633509078 0.30038488270289815 16.364041159854207 247 196 177 1.4040379578830691 69 1441 47 647 13 939 86 1205 32 3514 44 400 14 37 31 790
329 0.30701402876708844 -0.4954118238757847 16.539912630428166 166 123 112 0.63881038664220435 6 2159 2 762 41 1786 1 459 100 1804
72 -1.3962990374859228 -0.68528691949467779 16.117194459328012 179 133 106 1.3235525828255219 69 1435 47 545 25 978 13 933 86 672 32 3392 44 743 96 732 31 843 40 898
327 0.66918861904185956 -3.0905349558773731 16.219547821206564 34 17 10 0.44489753465257803 6 1942 2 650 1 322
70 1.2023956248564329 -3.1878583428213916 17.569990341037602 60 50 49 1.7081363718223357 69 1427 47 706
326 -2.0498878633399196 -3.1657065181843453 15.769079487999706 111 70 52 0.13854167907659792 6 1916 2 649
69 1.6074954434035409 -3.3876879030479223 17.230407328750836 15 11 10 0.39348590621623913 69 1426 47 701
325 -1.1483788554081855 -3.311567653314075 15.888276709000195 46 26 18 0.59330530458258901 6 1919 2 546 1 23
68 2.1409114852036297 6.7089538555850083 20.264623395556359 128 138 148 0.3849195170392129 69 1407 47 599
322 -0.80587444990301782 6.6167006927254084 18.720245668627893 80 79 84 1.7176967364562667 86 1806 41 2760
65 -1.6295768854224855 4.5323352962534189 18.484827388373827 225 178 151 0.62877682338523067 69 1400 47 677
320 -1.1926068955722089 1.2530501438314541 16.168861421532906 228 179 164 1.1555179177813806 47 723 13 945 24 1363 56 3454 32 3528 96 852 6 2282 41 1814 86 1395 59 1119
63 -0.41342007372577949 2.011290971837191 16.538262880035173 220 165 147 1.2500999269553466 69 1394 47 667 25 1002 13 870 44 427
317 -0.35847803742514966 0.91522418294565933 -1.5247420288035409 254 255 250 0.21234297456387408 86 1678 41 2592
60 -0.9526397302238957 1.4869748457863394 16.430120453472913 205 121 114 0.96674074906615504 69 1390 47 658 25 1000 13 860 32 3420 24 1368 44 111 15 956 96 754 66 1203 6 2057 31 827 99 1596 4 1102 65 766 57 1234 45 694
316 5.1213089193471566 3.4157938440690203 15.374016108261467 252 253 254 0.37987581106622548 59 1301 41 2588
315 -0.56005031892268731 3.1293043609225086 15.231932636829139 96 54 31 1.0367335970103131 6 2404 41 2587
313 4.8966514908492229 3.9688869073525095 14.231225376805583 250 254 253 0.093939425624301381 59 1248 41 2443
312 -0.33903371277912703 0.89607506671491632 -1.5401412250244584 253 255 255 0.77889369888891147 86 1407 41 2429
311 4.7616103046691025 4.1571595572027382 14.648806946394744 250 253 253 0.84018254134825665 59 1155 41 2222
310 4.8264830958473555 3.9976836698209199 14.904072646344074 84 93 90 0.88777947510147237 59 1147 41 2220
309 -0.44812520913834741 0.97537617759277206 -1.5217998704604712 247 254 253 1.8269468636980626 86 1406 41 2219
308 -0.37356017606459924 0.87560984866088043 -1.4787368759465913 79 84 87 0.59805170158482956 86 1400 41 2204
307 -0.37356017606459924 0.87560984866088043 -1.4787368759465913 79 84 87 0.59805170158482956 86 1399 41 2203
306 0.76228685400773943 0.97950289135394464 5.1879037723862433 0 0 0 0.14619949748717079 59 1140 86 1222
305 4.9739664888789763 3.6433848596375467 15.193746171856942 72 84 80 0.64411433003544005 59 1141 41 1891
303 -2.2274771958368169 -2.5145475347920878 12.097531277439966 135 98 91 0.18822876041044681 59 804 41 1209
302 -1.9860532976806677 7.854592143273714 19.367423555685495 102 104 116 0.027701197515717747 86 816 41 883
300 -1.1156268500541284 -2.4057599344934268 11.281733834940955 94 67 55 1.0845751948730267 6 575 59 974 86 938 41 186
295 0.089684727840759204 -0.89690879030043369 17.248503724666769 187 133 106 0.69311380688677504 13 734 47 547 45 628
125 0.45494698983689569 -3.5120454216903592 14.874421684222833 37 27 18 1.9803434069595078 69 1591 25 1152 32 3717 15 1146 56 3636
115 -0.56834573901174046 -0.46055453197185325 16.271479890956577 213 168 146 1.3365980753805022 69 1377 25 912 32 3203 96 846 66 1186 31 696
98 -1.1941795107643023 5.9435974230106172 18.513814947001386 98 127 176 0.35987335287880529 69 1526 47 813
73 0.32093641392654709 -0.51789563658401616 16.491909321137474 213 175 165 1.2621925232890905 69 1437 47 641 86 1202 24 1423 13 938 59 1110
67 -0.23020890695527396 5.4933402981841555 18.765671122808996 41 54 94 0.80804663737569016 69 1403 47 597
66 -4.1684457945953808 5.6038809593263501 20.192262966153454 82 91 96 0.072474365284031311 69 1401 47 593
64 -0.26736363980206412 2.1490287278158045 16.718857461785891 191 140 119 1.1885303184729634 69 1395 47 585 25 940 24 1278
62 -1.2271597119169753 2.0248410315871181 17.213034335054868 253 205 201 1.6835626855252279 69 1393 47 582 25 864
61 -0.093531317030697059 1.5264273591341571 17.096692106755363 132 85 93 1.3651534652979622 69 1391 47 726 25 1045 13 867 86 1567 32 3532 24 1364 44 617 96 817 14 120
29 -1.6449808890873092 -0.12739826374175245 16.290519894700584 250 203 175 0.25751362083228424 69 1137 47 133
28 -0.23012018064944997 -0.68215378947244298 16.504891844041609 211 204 202 0.85516748570114032 69 1129 47 114 13 733 86 681 41 393 40 667 45 626
27 -2.5250171710083427 -0.6861591334980327 16.3110449135336 98 47 36 1.0023678980561077 69 1125 47 544 25 907 13 729 86 967 24 1109 44 78 15 930 56 3108 66 750 40 662
284 0.77459892380008266 -1.1111197857796189 16.41381859384942 105 78 60 0.70146414632018084 6 889 66 148 2 561 1 58 36 66 57 171
26 -2.6797945010290052 -0.88720820812085144 16.178723567669923 194 156 136 0.45267664644988614 69 1123 47 102
24 0.75072301469923908 -1.2971631801658507 16.579660603476118 201 155 131 0.18546271868759212 69 1118 47 409 24 813
23 0.75013930612283974 -1.2950219819879634 16.573995340449081 201 155 131 0.20933607343952981 69 1117 47 410
22 -1.1944694834499014 -1.2033658141513595 15.71510970089753 253 208 191 0.36147150687011326 69 1116 47 91
21 -2.867766337884841 -1.1257840308299796 16.168148794560352 130 88 66 0.63818329653388772 69 1115 47 88
20 -1.4298777086079777 -3.0296139046359802 16.27286716964273 184 137 109 1.1130329246464448 69 1093 47 57
19 -1.223116239121931 -3.7162392354682576 16.479029223185222 140 123 116 1.9539015151151236 69 1083 47 371
276 -2.2567656210110858 -0.72094957240221336 16.08400030805938 33 18 9 0.92930499048596771 24 1255 6 1995 15 928 66 1180 57 638
18 -0.18711511187848262 -3.811762786932515 16.052705012331931 37 25 25 2.3857896352668524 69 1072 47 22
275 -1.9582833105241053 -0.77873468855511641 16.32193870079136 32 7 2 0.5826286009801801 24 1112 6 1979 15 682
17 -0.86837894128910953 5.3252642690953849 18.306203421025845 43 63 96 0.35364462494709969 69 982 47 267
16 -3.8350593172549088 5.4966516933762541 20.27440562050894 114 123 132 0.011127119966994493 69 962 47 252
273 -2.678269593289945 -1.0703990167507962 16.454778892898599 102 65 47 0.42873566771955629 25 1065 14 146 86 1533 44 740
15 -0.87151363417917027 1.5639419324962138 16.417812733636307 250 230 206 0.2936622146896698 69 917 96 650
272 -2.6046065337746307 -4.1366746908076015 16.078268885546592 0 0 0 0.41223000975552182 25 1151 44 1143
14 -1.2989817909474475 1.7849086278103878 16.752750665875446 196 118 117 0.81423265958963453 69 916 47 201 86 189
271 -2.3092965620090022 1.8377318640833493 17.05097359835969 190 144 96 1.960018350895828 25 1124 86 1676 14 153
1 0.97113233231901275 -2.3290408878668467 17.00755134939223 173 127 99 0.79820809262022352 69 199 47 70
258 0.53086616642549211 -1.3416781318373092 19.662978669334642 249 202 175 0.92815945538876732 32 3659 56 3600
2 -0.58391583709914108 -0.28979848273489262 16.200785672101823 209 166 139 0.22335227349009523 69 331 47 136
3 -2.0396173054279343 0.78372267185130762 16.224537214317845 207 151 127 0.90450912684937756 69 384 47 163 25 374
4 -2.046543146487863 0.86224272953621228 16.410049732264646 245 195 172 1.2885381831674136 69 385 47 164 24 877
5 1.1419374362947277 -2.6016240097158185 17.168141609244106 88 63 55 1.2439130458734828 69 816 47 69
262 -0.5563830884421761 -0.49007176809763031 16.2503503476727 239 188 170 0.83275519939292464 13 845 56 3313 47 642
6 -2.3087730857004702 -1.0581076886614047 15.834277870636425 147 112 93 0.36008627598894083 69 843 47 89
263 1.2526478897867299 -2.8933799045970514 18.123526488656776 92 61 42 0.13480446150366765 13 988 56 3427
7 -2.1853691575340348 -1.0779958665087361 15.889002115740457 122 86 70 1.1409807055523808 69 844 47 90 86 112 59 550
264 0.42277843688872863 2.4254772448115176 16.38056358646778 215 175 149 1.7734339479470296 13 957 56 3477
8 -1.3804383608896336 -0.78732703698936957 15.80554819270154 213 165 135 0.79106916748311118 69 858 47 108 13 191 32 2316
9 0.82619217225747676 -0.81303005170701714 16.790679038402036 164 126 105 0.19220921784686928 69 864 47 118
266 -1.5819200333506056 1.5810489606323082 16.415756219896615 225 203 181 0.57849524898215121 47 663 13 856 24 1366 15 954 69 1301 86 992 44 415
10 0.87716966869644131 -0.41520802829050629 16.807062584204289 192 150 125 0.061489974167750303 69 878 47 140
267 -0.47571748247718143 -0.58632168194611378 16.360222659727611 149 97 77 0.38758576940277706 69 298 66 167 99 521
11 -0.42075068523579495 0.23739566288921277 16.259958703272201 230 176 152 0.0078623966320083161 69 885 47 148
