# 3D point list with one line of data per point:
#   POINT3D_ID, X, Y, Z, R, G, B, ERROR, TRACK[] as (IMAGE_ID, POINT2D_IDX)
# Number of points: 160, mean track length: 3.71875
127 -0.53504536193596586 -0.8193256049411779 19.239120876078339 158 123 104 0.24607193128727708 25 1021 3 465 77 1175
126 -3.9726602607083485 -0.70270667587673707 19.104293075394207 145 113 90 1.0939536374000929 43 1253 3 461 14 103
125 -3.1594609962626348 -1.057407624915816 19.012593656464084 42 26 15 0.41621931386315031 43 1139 3 359 36 298
124 -0.091068735367022785 1.5849816375407435 16.648152127751754 197 150 124 0.72440499355503896 4 723 26 3191 50 573
123 -3.644001682977974 4.9335051383648487 20.021153254751141 186 132 107 0.9454067680304169 1 1237 26 3170 43 1471
122 -2.5197923182344066 -1.6328187071961142 18.653437090619473 247 199 179 1.5238770231110692 1 1231 26 3139 4 691
121 -0.71497117203552207 -1.8249405980742541 18.765412062474521 216 157 133 1.0393414864328179 25 1242 87 693 26 3134 43 1456 3 712 14 196 50 494
120 -1.8026342649366756 -0.59197411964695013 18.82640479210292 164 111 87 0.3416173500205979 25 1098 26 3098 43 1390
119 -0.07395222867195031 -1.2397249074371841 18.636423653327061 104 67 48 0.32415119023875294 1 1205 26 3091 50 457
118 -3.4474748309838139 -1.2444642862253763 19.016514664321349 219 165 140 1.0654804796216664 1 1148 4 604 26 3029 43 1383 73 1091 14 98 36 529 50 453 94 2034 81 1422
117 -2.6462486980496558 1.6084178242007909 18.728165550361737 209 151 139 0.90791955272478919 1 1037 26 2946 4 467
116 -3.4155975865784689 1.2802191920426851 18.737671978814273 225 174 147 0.95110959798649619 1 1162 4 616 26 2944
115 -3.980746683883015 1.7014152392309068 18.827530849286049 219 163 138 1.9396636076823368 1 1109 26 2943 4 617 3 623
114 -2.1354901804002728 -1.4008363831023796 18.800920771694003 252 198 174 1.4254268705866242 1 910 26 2892 81 793
113 -1.4820581697208075 2.3238378912386741 18.615381023453271 172 120 101 0.99359800463368053 1 950 26 2687 73 962 50 280
112 -1.9111256449444267 -1.0698592594040506 18.81483753968056 225 171 145 0.69615034996171454 1 919 26 1860 4 460 73 845 50 89 81 803
111 -1.715439784204114 -1.2325670010783776 18.868390908541432 207 153 125 0.57623752054636002 1 912 87 85 26 1787 4 309 73 844 50 240
109 -1.4508979615008184 1.8988565042800634 18.457656166252924 190 77 79 1.4568407357888986 25 1252 87 713 14 217
108 -2.0920264949659497 0.44684020461851226 18.333784926552745 255 233 213 0.85996317538738998 1 1236 87 701 4 697 3 745
107 -2.5761759771835249 0.099510730229051436 18.720531575488078 188 138 113 1.489505880726945 1 1252 4 678 25 1249 87 698 43 1463 3 743 14 200
106 -2.4915061221629564 -1.0627003121189573 18.783923043665606 198 148 121 1.2381468181431248 1 1208 4 646 87 695 26 3096 25 1149 43 1458 3 715 73 1139 14 174 36 566 50 496 77 1296 94 2118 81 1476
105 -3.7556835691711239 1.8778333139391832 18.155743627940105 226 172 148 0.91875249581219165 25 1172 87 630
104 0.76901395666382077 -0.92998924399246352 18.956338123190697 50 17 11 0.28746721378762419 25 1091 87 615
103 -3.8854228888172435 -1.4324451954363768 18.821799250163561 134 88 65 1.5602199700540988 1 1146 4 602 87 610 3 534 50 452
102 -1.9860520950443807 1.9438332016127133 18.431487463914319 212 93 103 0.72371691097988011 1 1113 87 571 14 118
100 -1.2119916803455999 -0.077157110250908489 18.91121908250534 253 195 173 1.0324378100232297 25 1101 87 556 26 2919 14 107
99 -1.8092757899793539 2.3573640810047269 18.186261807267442 170 112 98 0.79068425824221578 25 1039 87 501 26 3057
98 -2.6125491762173492 -0.71555745234910351 18.9352354953975 239 188 170 0.51949212758673091 4 458 87 478 3 462 43 1254 36 301 94 1879
97 -1.2360434018754398 0.73482772333956436 18.657187906363774 250 190 172 1.1215444619215744 25 923 87 363 14 47 3 555
96 -3.8238319923448523 -0.94318314134117709 18.946594273299233 120 69 52 0.34777446797089628 4 98 87 346 26 636
95 -4.0462862789452894 -0.94482752505155365 19.028041017392194 198 142 117 0.48971130939269675 1 786 25 757 87 103 26 634 43 717 36 81
94 -3.1975497479986923 -1.2360933602546296 19.040726793276722 227 173 147 1.3922683042621029 1 1286 4 734 26 3186 43 1497 3 783 14 237 36 611 50 571 77 1343
93 -2.1207072580211692 -1.5015437840346628 18.159031496269055 227 190 161 0.92956210952262419 1 1274 25 1277 14 227
49 1.0790139359052235 -5.0573806559142245 20.701846262741807 131 133 140 0.6434012471048336 1 1082 4 531
50 1.3056292633493654 -4.5170463054330625 20.69024815546998 130 130 138 0.28157243262450299 1 1083 4 443 25 732
51 -5.1596364067755838 -2.941123066798526 19.817299778186825 48 38 29 0.69782493536211532 1 1086 4 538
52 -4.4609229587293653 -3.2401346810753759 19.330453727537503 158 126 103 0.31207218962596117 1 1087 4 445
53 -1.1674995521709539 -1.8339000057930306 18.750128951355421 201 166 143 1.2231075818460773 1 1091 4 600 26 3021 43 1381 73 1089 14 140
54 -0.091052234359864426 -1.6365516998415133 19.403256945253801 149 117 94 1.5407465902149611 1 1093 4 607 3 665 36 446 77 1226
55 -0.58325848108492717 2.1936606551353242 19.180452418782984 197 169 148 0.24152696312819683 1 1119 4 557
56 -1.2171038264553693 2.866856720655993 18.939245812650768 172 145 126 0.62866037421959797 1 1121 4 562
57 -1.4009391365792585 4.1779633257518309 19.177433571104089 186 158 137 0.92686380467073604 1 1128 26 3061
58 -1.8395503168848462 -4.7255739707503004 18.576621593547443 10 9 4 0.38637140400969244 1 1139 4 595
59 -2.8374902318423993 -4.1158010449110609 18.757035014895713 65 52 39 0.01749081841653986 1 1140 4 597
130 -1.490895487409394 0.50589745167933153 18.577521051230413 184 133 113 0.57815186036048105 1 935 3 549 73 874
3 -2.1407985680454558 -3.8390851290221657 18.687512693627447 132 102 81 0.34776322228857459 1 550 4 58
131 -0.80422061361135677 -1.7104817617709547 18.676715479632843 176 137 110 0.40574773310976031 43 1337 3 603 77 1225
4 0.18477494861597618 -2.653775416339518 19.287943014769215 91 65 48 0.085769663064576424 1 562 4 80
132 -0.50277889442058199 2.0320649510935769 19.415246271647192 189 148 126 1.0766501705530653 1 1115 43 1408 3 625 94 1998
5 0.99249662611939415 0.13776637785465115 21.329356508177781 118 91 72 0.6908202686325845 1 610 4 116
134 -2.136671910964711 -0.18360187089754026 18.543736627960886 197 139 119 0.51114273042868785 43 1439 3 670 77 1277
7 -1.3027041756661319 3.8905477078720185 19.339404566095102 168 151 143 0.10765692861383222 1 655 4 170
135 -2.0968695338450987 -0.95787664510595072 18.772267279429766 211 161 132 0.98700491720286732 1 1209 3 716 73 1124 36 567 77 1297 81 1478
8 0.96314252387293398 4.8863739335231351 20.122802585255251 90 96 96 0.4248587167968354 1 660 4 185
137 0.44434908995128475 -1.6494018388060308 21.661329845120392 148 109 90 0.56711421751860647 4 692 3 766 77 1337
10 -3.3745493797644524 -4.5024880644671468 18.855452405109698 27 24 19 0.54787239989604519 1 743 4 36
36 -2.2277871315766373 -3.8820289061422568 18.598914237388598 127 99 77 0.20836260103347568 1 1010 4 441
163 -4.2841230217588784 -1.2731473822289863 18.940943572684652 100 71 55 1.3403627797312534 4 601 36 489 1 1202 50 450 94 2084
154 1.0788652211777172 -0.86196045429365009 21.186397743610744 43 26 11 0.10622494878356366 43 1461 14 215
27 -1.4487209090106714 -1.3738632710792857 18.806744343453882 179 147 123 0.93148497277719999 1 913 4 454 43 1248 36 445 50 241 94 1873
37 1.1588165342456009 -4.383215867803858 20.809143369205966 22 18 15 0.31402206043461489 1 1011 4 442
164 -0.49920178497475276 -1.6858908236310539 19.174251993002102 206 145 114 0.20746623461207572 26 2538 50 242
155 -4.2134056656623438 2.1516713592459853 19.590018693012915 195 137 101 1.0571258165415349 43 1498 14 238 36 614
28 -1.4483156715502161 -1.3572955185727953 18.739754742991618 179 147 123 0.38240184501169699 1 914 4 453 43 1247
38 -4.6691070262873149 -3.2938636498988494 19.506472985293787 101 82 62 0.70235834805983433 1 1012 4 444
165 -2.8116599329580936 -0.70208330003596453 19.138902049036279 228 155 132 0.43907447951938283 1 797 94 218 43 729
156 -1.7265358993702702 -1.0530986674317702 18.937401001424259 157 100 72 0.66445628626924003 1 1097 25 1088 4 610 87 611 26 3036 73 1049 14 147 43 1384 3 667 36 528 50 459 77 1271 81 1354
29 -1.0473110569503385 -1.0704671823654921 19.145458375968612 42 32 27 1.1695516541382525 1 920 4 316 26 642 43 1143 3 348 73 935 81 1278
39 -0.93744579743757306 -0.71639668835618009 19.249350502377791 191 165 151 0.82408072587375503 1 1025 4 544 25 1090 43 1394 73 994
166 -2.6062123247365037 -1.2794084665779528 18.544499484300417 185 129 94 0.37538689710171597 4 91 94 1681 1 575
157 -4.6794707798364499 -1.9290821675681558 19.420852521499409 181 142 125 0.99233411166053398 4 448 43 1131 36 61 1 1089 50 395
30 -1.1902310698172673 1.6265784478612535 18.548374157075912 141 112 98 1.0907352419379124 1 941 4 141
40 -0.75363203413295865 -0.71717847339531793 18.970904234651019 178 147 127 0.87367861194404151 1 1026 4 461 25 910 43 1258
158 -1.1208915234307406 -0.95094465436984965 19.155210098199106 243 227 221 0.8332153168965476 3 97 36 92 77 1114
31 -2.3972765638435041 3.2246199556630035 18.570169630310417 190 158 143 0.25743541798474917 1 955 4 355
41 -0.14429669375482229 -0.41465237418074813 19.262089131784791 160 122 101 0.022500007806107964 1 1028 4 462
159 -1.301664015712771 2.1528146042313066 19.364631196712796 212 158 133 1.3164934947207498 3 394 4 149 36 165
32 -2.2003041697150385 3.1768011115845525 16.479697348998481 125 103 90 0.63546755048884773 1 960 87 406
42 -0.80146129731817495 1.3073211963790061 18.674553964862852 193 161 141 1.3449487392510537 1 1040 4 555 25 1028 87 627
160 0.42301416371724687 -1.9724325498390558 19.976164442660732 215 160 133 1.6152603974567492 4 87 43 1242 36 285
33 -1.4978230441367544 3.3017491214408836 15.612362648172308 169 141 118 0.75482530316440033 1 968 4 368
43 -3.4075661775184503 2.4657123271040349 18.678702383591155 189 153 132 0.19872590747609339 1 1046 4 343
161 -3.4864564283742512 -1.5023770789967557 18.653994764463622 126 93 79 1.0076077889533792 4 541 36 443 1 1095 50 398
34 1.7740341859438264 6.7932904168224164 18.164019501503873 146 156 157 1.2555711209578821 1 987 4 388
44 -3.6186228648239869 2.6340283907475994 18.908494294329323 181 146 126 0.41844271681084921 1 1050 4 347
162 -3.4864564283742512 -1.5023770789967557 18.653994764463622 126 93 79 1.0076077889533792 4 540 36 444 1 1096 50 399
35 -2.0893620046189434 -4.0349701047703359 18.798369520533118 151 132 115 0.786380797012181 1 1007 4 532
45 -0.65305413933048306 2.598064541856274 19.129840736785226 180 152 131 0.21736484160022879 1 1051 4 558
46 -2.0988314290104495 3.4080736048916678 18.803178409144518 188 159 141 0.19457843760020271 1 1057 4 488
47 -3.2995101339453892 -4.8518733900417548 18.550752187026255 6 5 2 1.3914481128571474 1 1078 4 526
48 1.0790139359052235 -5.0573806559142245 20.701846262741807 131 133 140 0.6434012471048336 1 1081 4 530
153 -4.6212885097860257 -1.7167215842212531 19.181859352406775 171 116 91 1.1943229895118492 43 1480 14 214 36 563
26 -0.27191899341799214 6.3272653420151874 19.527838168130405 171 177 177 0.66389730443230066 1 878 4 209
152 -3.4444206271130282 -1.7460743272994581 18.216966134181682 202 139 108 0.73595167416450757 3 711 14 195
25 -0.27191899341799214 6.3272653420151874 19.527838168130405 171 177 177 0.66389730443230066 1 877 4 208
151 -1.0148141668825652 1.9828080279598734 19.305295394092457 193 142 111 0.33619560198142623 3 678 14 153
24 -2.1509705232847587 3.2780295374898247 18.716289876144248 199 168 150 0.53699286137420621 1 850 4 168
150 -0.075693209419234714 -1.2831930394642106 19.112426233079795 88 50 27 0.033780857570511517 43 1386 14 142
23 -1.0357383812019449 2.7132430822993099 18.951059881048586 158 130 111 0.38390937450914275 1 846 4 351
149 -1.5400066945970854 1.5594587400927158 18.731975298792189 196 131 125 0.37706672280426151 1 1112 25 1171 14 117
22 -1.0357383812019449 2.7132430822993099 18.951059881048586 158 130 111 0.38390937450914275 1 845 4 350
148 -0.6932962789272985 -0.96632807469466564 19.369500867044671 38 16 1 0.19661484656957839 3 535 14 101
21 -1.3232036267500098 2.8879922903866899 18.848476605843288 185 150 130 0.088984628489910039 1 844 4 349
147 -1.4965691121705766 0.49764466145485287 18.588676192482481 177 116 99 0.5239518161311858 43 1268 14 46
20 -1.3075538963996829 2.7042405055343872 18.893007395830956 163 127 107 0.58917844914240192 1 843 4 158
146 -3.2548972339023456 -1.0735989598506066 19.146593759142664 32 21 19 0.99114517708595751 1 788 73 850 81 800
19 -0.49542959020120719 1.7261258158176898 19.164856694543531 175 144 123 0.90845261758243567 1 832 4 339
145 -3.8196923871442632 -1.6773493058202991 18.723001624506939 127 86 64 0.57851651111922475 1 775 73 835 94 1180
18 -1.5491620098319869 1.1206359354116664 18.212000512218978 163 140 127 1.108275990250482 1 818 4 130
144 -1.286456722621838 -0.76992491069076019 19.129012167512307 157 120 106 0.41953200021873815 1 583 73 732 43 977
17 -1.3835182341467822 0.40304979190072632 18.68582148687468 147 113 94 0.7907826224774519 1 809 4 328 26 1952 87 133
143 -3.7343481974280932 -0.94737322728470752 19.225638756016629 127 110 106 0.66520105523096462 1 219 73 531 43 237 25 545
16 0.82860386423211574 0.038462017966340571 20.836603979903593 177 148 130 0.27499219071713732 1 803 4 324
142 -1.474488102328011 -0.84568055359596639 19.154157519714964 88 45 25 0.18368221145626482 1 226 73 221 43 279
15 -0.46925708184394466 -0.95329903192206866 19.18480212651194 53 30 17 0.3717162387766233 1 791 4 104 25 549 87 92
141 -3.6407977472598057 -0.80387430635973889 19.175276484262767 151 119 106 0.80705032152720413 1 222 73 215 43 728
14 -1.1474286337239834 -0.95622432200443108 19.29256222625391 196 192 184 0.52391544812081769 1 790 4 317 25 763 81 805
140 -2.0883781671510997 0.44737951434383966 18.41232290082834 178 155 139 0.88466447171069562 1 1253 4 698 1 1235 25 1214 87 700 26 3146 43 1465 3 744 14 202
13 0.68525817750339946 -2.611988446906202 19.612401091522067 34 31 22 0.028294440553264008 1 770 4 301
139 -1.0154777181430232 -1.2106201047288676 18.727240934335981 174 134 106 0.37098184525059558 4 735 3 784 77 1351
12 -1.8671694989945393 -3.9352648355280566 18.776500032069631 175 153 132 0.12431103712551925 1 761 4 60
138 -1.0783563841370949 1.6399821366361877 19.171443704253825 113 79 60 1.1097999239718892 4 702 43 1483 3 769 36 599
11 1.0441893151246489 -5.3267930859732076 20.477300253188332 32 35 36 0.60874482204571845 1 747 4 44
9 -2.7237659399742915 -4.9435762336913189 18.678704660927295 13 14 9 0.4763485255261008 1 739 4 37
6 -0.47102506804482003 3.5665940364918405 19.791847815248666 142 113 97 1.0509261232469778 1 650 4 361 3 212
2 -3.1920449137961042 -6.1599016079847244 18.893319985294291 75 72 67 0.90098775502867623 1 481 4 12
129 -1.6196479398001862 -0.77009330699975531 18.925258518407524 192 151 123 0.83689228112714364 43 1341 3 544 77 1230
1 1.3557898913683288 -4.8729031594557917 20.660614168120556 130 131 136 0.5428011807360722 1 126 4 47
128 -1.9422131258161863 0.99022493197692707 18.445491648444179 183 137 121 0.75342866805020769 1 620 3 472 4 128
60 -1.4753223517104432 -1.752824117695104 18.750690356296342 218 187 166 0.76670370825872425 1 1144 4 605 87 607
61 -0.75409964851658495 -0.95153213509168433 19.094178092802963 49 53 49 0.80286602783391414 1 1152 4 611 25 1156 26 3038 43 1393 73 1050 50 407 77 1274 94 2039
62 -0.76439498726180899 -0.96489120904937264 19.20902969523328 49 53 49 0.35554590820144982 1 1153 4 612 25 1157 43 1392 36 531 77 1273 94 2040
63 -2.0705494214386282 2.1777046181251514 18.435966556860784 201 157 152 1.1019980186870522 1 1170 4 618 25 1173 87 633 26 3053
64 -1.0392713893580914 -1.5050696475459775 18.811282161068242 98 75 58 1.3508287950586815 1 1204 4 642 25 1205 87 694 26 3140 43 1433 3 664 73 1123 14 198 36 562 50 524 77 1293 94 2085
65 -2.0816808277801138 2.4663255479386113 18.495871705626477 112 98 89 0.844404221486869 1 1219 4 655 25 1223 87 671
66 -2.2225486039514188 3.8853345633602068 18.629073014195246 76 53 43 1.1673182374294984 1 1257 4 706 87 716
67 -1.687336785683077 6.8362468967989454 23.241817635779885 213 175 156 0.056069268918119475 1 1259 4 709
68 -0.89448729901255386 3.3809407730804764 19.010098853965662 113 93 85 0.80553325096991912 1 1267 4 716
69 -2.052001471626502 3.1669860880467331 19.268116018225019 197 164 144 0.21363334878392914 1 1278 4 726
70 -2.052001471626502 3.1669860880467331 19.268116018225019 197 164 144 0.21363334878392914 1 1279 4 727
71 -3.3354325790240948 3.371202959965248 18.269192931339191 78 62 51 1.9985647980974373 1 1281 4 705 87 735
72 0.22452325356983885 5.5699952063365101 19.909875942254072 226 231 234 0.095123129435273554 1 1289 4 736
73 -2.9970741218980157 -0.82325311992894634 19.19735465627733 162 110 88 0.24039888771464976 1 582 25 150 73 727
74 -0.45871946256770535 -0.96313548624324019 19.247930355158129 78 36 20 0.59162088500882803 4 105 25 548 87 93 43 287
75 -0.60490288431215478 -1.2530995069652426 18.731739909719462 217 173 135 0.8406932205141342 4 94 25 750 87 342 26 576
76 -3.644132758420898 -1.0252289336551712 19.123715777851267 51 35 22 0.59110497052401134 1 787 4 100 25 758 87 81 26 637 3 358
77 -3.1171291509697125 -0.92011398001178701 19.074327761412302 215 201 185 1.0938430045938636 1 917 4 315 25 759 87 477 73 852 36 86 3 102 50 87 77 1118 43 1140 94 1690
78 -3.1239984957292091 -0.93395024721469455 19.192551670555194 215 201 185 0.17241967973642425 1 918 25 760 73 851
79 -2.1538311983720071 -1.4038005494000374 18.81160223271895 235 197 162 1.4956835049160129 1 911 4 452 25 895 87 470 26 2893 43 1243 73 838
80 -3.8941784635821235 -0.92181720998280148 19.079209860359327 96 47 26 1.0097889100501327 1 916 25 1017 43 1136 3 540 73 937 94 1688 81 815
81 -1.613299888183326 -0.71627229302003137 18.953368805700023 216 181 152 0.72779885257029808 1 1098 25 1020 26 3037 43 1342 14 100
82 -3.4138642513365802 -0.700510919497358 19.171964115262533 207 171 149 0.19598835251105631 1 1023 25 1024 26 2908
84 -0.83708142316085543 -1.2052069419677989 18.867515911532056 216 183 152 0.89510937622575104 1 1150 25 1150 87 658 26 3030 3 606 73 1045 14 148 50 454
85 -0.84830077446828833 -1.2175747562027324 18.951889072083564 216 183 152 0.92360400315895996 1 1151 25 1151 87 659 26 3031 3 607 50 455
86 -2.0685505616274402 2.1656873759387314 18.460333993717839 214 159 154 1.248736423628624 1 1169 25 1174 26 3052 3 676 43 1409 73 1067
87 -3.1336324983824366 -1.4806361202125682 18.48994904590079 102 70 57 1.3945454521634348 1 1201 4 641 25 1206 87 656 43 1432 73 1122 3 714 14 197 36 564 94 2117 81 1472
88 -3.4986757031413362 -0.97421207177772806 19.198498039049415 46 50 51 0.82523966780617808 1 1207 25 1209 87 617 26 3095 3 668 73 1095
89 -3.5002787200707521 -0.96918155850137433 19.252905111416304 46 50 51 0.48149554855004911 1 1206 4 645 25 1210 26 3094 43 1436 3 669 73 1094
90 -2.0962456897898529 -0.98659832139081127 18.76080317317285 233 188 157 0.95997763434153915 1 1210 25 1211 26 3097 3 717 14 175 36 568 50 497 81 1477
92 -2.1207072580211692 -1.5015437840346624 18.159031496269055 227 190 161 0.9295621095226253 1 1275 25 1276 14 228
