# 3D point list with one line of data per point:
#   POINT3D_ID, X, Y, Z, R, G, B, ERROR, TRACK[] as (IMAGE_ID, POINT2D_IDX)
# Number of points: 178, mean track length: 3.9101123595505616
136 1.241800612975698 -0.44464942929440304 11.341753136839955 184 93 52 1.4056569129308187 24 1336 40 745 53 1147
127 2.0124174821495195 -0.53921126885907034 11.555458782389621 64 46 46 0.77652181736567005 24 1316 73 292 41 852 53 1115 13 1077 5 682
125 4.7675223399508173 0.19755538106312653 16.642112748983465 194 98 37 0.69228327358218933 24 993 41 674 69 45 44 763
124 4.8505179115916635 -0.50179426237911007 16.11648694874069 148 64 17 0.81812610876697445 24 979 41 568 69 304
123 -0.32289603914381781 -0.31142562726331319 11.399102996909987 105 55 40 1.3537123720457711 24 975 41 560 40 343
122 2.3885454181185235 -1.1404814399449221 11.088598630957041 59 22 4 0.98691953568566748 24 957 73 132 41 470 59 833
121 -0.20036705019885315 -0.31736740996910723 11.706315666901197 111 45 17 1.5441085265927925 24 216 41 368 31 506 59 169 59 171
120 1.9467214111709017 -0.61128880714183464 11.551994937627702 27 17 14 0.5747282175472731 24 794 41 361 53 548
119 3.9915555902626356 0.092618964036871698 14.646247234867076 174 121 69 0.5332720571094568 24 238 41 155 59 549
118 5.2306323257634615 -0.44734405375410269 16.687402186894133 173 90 46 0.50643953237783035 24 227 41 142
117 2.2132766940570971 -0.75128661549737652 11.347947543586596 182 106 72 0.81495997130731068 24 171 41 98 53 158 59 114
116 -0.045381076269726026 -0.55130471270106651 11.670774938877811 28 16 7 0.42038949302417733 24 801 41 90 1 644 53 741 27 65
115 2.4262969160201702 -0.88809633016840206 13.494474398047963 123 62 31 2.4436719140804515 24 170 31 119
114 2.7286065636493508 -2.7496482339574464 12.864938261158992 160 90 56 1.099517706178333 73 359 31 1056 24 1308
113 0.97015526485028003 -0.13677505574172291 11.020964717051443 241 159 111 1.8326673006283194 73 375 31 1047
112 2.4425288355555677 0.57613692874540512 10.603352193025074 185 111 74 0.19300289004569471 73 298 31 1027
111 1.7125176227150385 -1.0944631729438574 11.260443585884863 142 107 85 2.0536736893058598 31 1019 4 980 1 1040 5 711 24 1311
109 2.7051283271129059 -0.47412412622108896 11.762497598605052 191 116 76 0.96080242802360161 24 1281 44 914 73 287 31 1000 41 855 69 517 4 886 13 794 59 1030
107 1.9792341524470538 -1.1238532157471739 11.156372256718686 129 99 88 1.4752260356251139 24 1312 31 996 41 847 40 708 69 583 1 1042 5 713
105 1.4294423202661928 -0.38567285480989572 11.341924287582938 232 167 132 0.1672433842787962 73 247 31 974
104 2.673677296580828 -0.69726926522571153 11.544223146097158 194 122 82 0.61518791739698908 24 1228 31 969 73 243 41 792 4 804 69 427
102 2.0884560254582798 -0.88616714412499809 10.398858564689844 217 154 123 0.36068758043324456 24 1168 31 919 41 646
101 1.8991624042376045 -0.57766358278748497 11.609100643747846 85 43 26 0.71999476991496236 73 141 31 871 41 648 1 780 5 289 27 292
98 2.2984831942284902 -0.41843530409503255 11.032871581997576 176 110 77 0.048523362305570833 24 970 31 802
96 0.49009617399167221 -0.34433746642781832 11.416142785479419 251 173 130 0.48164391593736788 24 810 31 689 59 847 41 110
95 2.2761019696411289 -0.64022090693938094 11.463579294096213 149 94 68 0.94805458993767322 24 795 31 684 44 548 4 94 59 728
94 1.9813236857021683 -0.79215984306491327 11.407717726677069 242 176 149 0.054630556531314253 73 14 31 673
93 -0.16362790093576032 -0.52830543482299186 10.488240561606403 180 112 77 2.9684837640810224 24 962 31 105
92 3.9730839076851674 -0.26217252732665763 14.265452160579033 105 61 34 0.47678141763182214 24 978 56 80 44 753 69 44
91 -0.32724059532756655 -0.51637427678575942 11.457152802823373 175 130 97 0.94938566045134409 24 799 44 532 1 437
89 0.13977534509406642 -0.99769278050040255 10.959765732066442 138 126 118 1.8838908003500323 24 1314 44 936 41 845 53 1143 40 707 1 1039 5 741
87 -0.45276476793617265 -0.22702575895908808 10.748788218608528 187 146 106 1.7464488300087311 24 1235 44 887 31 972
86 0.10828265114708502 -1.2356206895836086 11.132770464836417 195 152 118 1.6182598319116639 44 882 53 1060 73 238
80 1.5956552565355357 0.23176930387282879 11.228411904323188 115 65 38 0.93707562229044417 56 324 73 254 44 752
77 2.285087947105692 -0.59374497884264144 11.609417571526324 37 18 11 0.69524096129031354 56 70 44 549 53 756 1 651 70 399 5 63
75 0.26224234696816212 1.0486158038477791 10.807317798704858 101 69 61 0.5114087144942685 56 505 73 383 12 1150
74 2.0124604911155424 -0.83289434867874024 11.130435706249784 224 162 121 1.3939734629548148 24 1334 73 369 44 942 31 1043 41 882 53 1167 40 742 69 668 4 1027 1 1058 70 1053 5 744 12 1111
73 0.42534963625093553 -1.2103056781385393 11.118809333413621 241 195 168 1.0166107892281995 24 1331 73 367 44 937 31 1057 41 908 40 740 69 667 1 1074 53 1163 5 780 12 1142
71 1.419005195850628 -1.2542831243071508 11.206023086275753 248 203 183 0.87000828801379682 24 1310 73 328 44 938 41 846 40 741 4 978 13 1143
70 0.34681239190723934 0.70423209809071374 10.935614581343087 207 133 92 0.40921583528127997 56 427 73 300 12 1010
67 2.016189293547713 -0.54455270285210999 11.549176977278881 99 58 52 0.95841662816860529 24 1317 73 291 31 1023 41 851 53 1114 69 589 4 935 5 681
66 -0.034493154521323927 -0.47179186693478592 11.644381717780673 77 39 38 0.30998291234784686 24 1278 73 289 31 1022 53 1109 1 1044 59 1017
65 -0.037905024647528512 -0.46874053894742723 11.656208417763224 77 39 38 0.68076533854200671 24 1279 73 288 31 1021 53 1108 1 1043 13 1074 5 715 70 995
64 -0.11511931670548756 -1.0435389370790036 11.188216798065532 78 52 39 1.0196280954095756 24 1274 73 286 40 706 12 1069
63 0.083097014658116475 -0.85308319200141447 9.8268853555184457 78 52 39 1.6492804624263937 24 1273 44 906 73 285 41 784
62 -0.20337624314106356 -1.2566107734784195 11.353714412519661 189 120 81 0.71775260922150519 24 1271 73 282 12 1068
61 0.78181934334363579 1.1354392750335607 10.945275932906865 184 113 95 0.62177303758298708 56 382 73 263 12 905
156 4.1579145753739883 0.52989267675199336 14.547498282498564 191 145 105 0.31537357801849447 40 112 69 58 4 119
29 0.53690896662932608 1.3763747333500236 11.454454581247173 242 228 208 0.29140423187733788 24 1297 56 433
28 1.6257867861365318 0.65225781535442784 10.991994746541817 203 121 83 1.7107040369094297 24 1292 56 459 73 301 44 899
154 0.22304136490417981 -0.57235253982364653 11.643779953140646 184 139 109 0.95844765823971445 31 489 4 72 1 640 70 112 27 55
57 -0.26117117023702729 -0.91083780289608363 11.423933961263291 193 139 107 0.47387806601233945 24 1167 73 242 12 874
184 1.2424013190391001 1.2521453554516351 11.146611313179159 198 157 157 0.24405509086575883 40 149 13 136 70 194
59 -0.33321479748960003 -0.39106210928362889 11.163863209395458 67 19 9 0.88381362535799557 24 1229 73 250 44 888 31 971
177 0.58048197565911464 0.42797671570400336 11.029978415174858 225 158 131 1.2299693089751191 53 1071 1 1002 44 861
50 1.8091783934645966 -0.49762947673732666 11.616414020339846 243 195 173 0.88939905250618134 24 1089 73 140 31 874 41 562 53 869 44 815 40 336 69 297 4 439 1 782 13 69 5 291 27 299 12 687 59 917
178 3.6820480673812344 0.66508488065288229 12.78224772774878 235 167 127 1.1262990605741929 24 1340 1 1031 69 679
51 2.0076295583306814 -0.37954408570514347 11.784869723677053 244 196 177 0.7590184421334375 24 1090 73 142 31 928 44 821 41 652 53 963 40 458 1 891 13 436 70 838 5 577 27 300
179 1.3635091248160678 0.13870142993445742 11.170551992609624 197 122 82 0.40868851741432521 31 1049 1 1061
182 -1.6677525978048164 0.41366106036408973 15.845294417930232 207 136 109 0.36655248759482562 40 102 13 66
55 0.78545948109032238 -0.50990159207998531 11.230669778328336 194 121 77 1.0201805055110897 24 1172 73 196 31 923 40 632 1 995
183 0.72075723095602484 0.45364841478398849 9.7095057325794976 207 139 125 0.35079598769375381 40 108 13 91 70 141
56 1.0084216420888616 1.1745874318015643 11.070330001608427 165 104 85 0.6203243085292226 56 383 73 209 12 906
185 -1.4254708851285922 0.085615665878191458 14.18480742577627 246 181 147 0.13306958023356447 13 600 5 574
187 0.30673527697067021 0.17446683323121126 11.121910827360923 235 169 146 0.38553569536531312 40 353 69 34 13 613
188 0.50159880759832043 1.2674499120965554 11.312965775780128 255 226 224 0.25478979609366553 40 474 13 622 70 687
189 1.1055736038509831 1.2565499318667062 11.072113217387157 254 232 224 0.41989844054631614 40 571 69 315 13 815 70 956
190 0.48791520326756316 0.43050013674757998 10.773873056091702 222 152 126 0.57843077430748802 69 522 13 940
191 -0.42137888519978062 -1.0961569409824068 11.378822070720538 103 66 49 0.5012950191172213 69 578 13 1138
192 -0.13759487715162627 -1.0172033573723294 10.898335925257147 118 85 78 0.20070260613305765 40 705 13 1139
193 0.028257356026221758 -0.30000406623121395 11.710624762099489 165 135 124 0.76669600491511225 40 453 69 283 13 601 24 976 56 209 73 145 31 873 53 959 1 964 70 831 5 446 27 433 12 269
194 0.22496855100851076 -0.35438211173666812 12.167476887105048 189 121 79 0.87502905213725879 1 446 70 4
195 0.23293660109458308 -0.47173794620310078 11.469555041109212 149 76 33 0.61475011929145806 40 66 70 113 27 66
196 -1.8608952099763363 -0.19288841519781755 16.074453572834223 226 144 89 0.43322205166007249 4 96 70 117 27 81
197 2.2697240334585227 -0.5914903399601259 11.577330405281261 75 23 3 0.45830077251237883 1 652 70 398 5 62
198 0.32726949157939383 -0.68644059240491295 11.423329980018261 196 112 78 0.46155869198562621 1 956 70 629 27 425
199 -0.33909386618596937 -0.31042341932580036 11.666699083431499 207 143 109 0.7976172635323 4 668 70 635 27 430 5 444
200 4.1138164268613169 -0.35902395047430241 13.441341231870098 170 75 31 1.0808674095118356 1 788 70 654 5 300
201 1.5162485503497318 2.6046093196949935 11.410912954604255 142 78 53 1.4811845113425959 1 934 70 736 5 482 27 459
221 1.0803409159332942 2.0225151731193205 11.71287655756457 117 74 58 1.7482376396240351 1 1067 5 758 27 660
222 0.27531482097287119 1.2709240538050468 11.600543629487252 140 86 60 1.7532574256822406 1 1083 5 790
223 -0.50721520075390825 -0.33322370463993167 11.958034706890164 192 119 76 1.4408956517922078 1 776 5 443 27 428
224 -1.5146725543562132 0.52018409954343914 14.316530082719732 199 120 64 0.34713526561585245 13 611 5 451
225 0.046738548221192833 -1.0847497291948829 11.09452906121005 77 43 18 2.4672557806382507 73 13 12 231
226 -1.8036801415103707 0.49119465278566832 14.295341856534478 125 62 29 0.27607115766895285 73 151 12 297
227 2.7137944865909711 -1.0832261428661212 10.946506431572631 133 86 59 1.9470459896626204 73 368 12 1143
228 -0.07553773120829857 -0.63143122457788847 11.739556678328299 194 153 137 1.3060535431586979 24 791 31 109 59 526
170 4.9286948477947385 -0.40264964561123534 14.641311694566426 209 135 108 0.28234379231765705 31 525 1 457
229 2.3779096268217743 -0.68948201377195251 11.249457584318554 164 96 59 0.52318434039985318 31 683 59 722
171 4.25562320897739 -0.41086673582546507 13.367511224955676 209 135 108 0.0079947129741219682 24 614 1 458
44 1.1231498980045651 2.6195697522984092 11.850432157336426 186 153 133 0.28523796420725023 24 1371 56 521
230 1.8272781852855386 -0.37022700189582575 11.479411217388586 190 121 86 0.24944138538328475 31 690 59 736
172 4.1940383635901561 -0.43582278928984514 13.439247516868159 224 155 125 0.77960553772623609 24 612 1 659 5 79
45 2.0112086232649373 -0.67623625552028044 11.404338306190272 227 178 155 1.0998204748455651 24 793 73 15 31 682 53 753 40 71 4 79 13 433 5 288
231 0.40468737434945917 -0.2952379092687295 11.391707106242645 196 139 109 0.47493590991695511 24 809 59 742
202 0.52102811067754984 -0.4983755834339107 11.400723222421869 170 79 35 0.78437746513495199 4 800 70 832 27 511
173 0.13835966285585727 -0.86960376318080801 11.080135858656149 188 129 98 0.96171275710227899 73 135 1 769 24 1077 5 275 70 376 27 288
46 0.18665820034693853 -0.43631168985831309 11.666152437063028 251 206 190 0.80866746483235974 24 1088 73 77 31 801 41 483 53 960 40 454 69 22 4 669 1 960 13 421 70 830 5 447 27 297
232 1.5073281547279085 0.11458384267505492 9.143936378635237 179 103 69 0.90006490380578386 31 1050 59 1020
203 -0.39541038864247557 -0.4345720704180685 11.684309112472492 93 37 12 0.40973069300898529 4 882 70 993 27 559 5 644
233 1.8378675400635491 0.74298855707412226 8.1961568651344816 79 42 24 0.97268531711425887 31 1061 59 1050
220 1.2265120827347666 2.5585538358629067 11.404729003971404 181 126 99 0.95266978554769799 1 1017 70 975 5 698 27 581
219 2.5059924611964663 -0.56411607016627341 11.785945143096338 65 24 4 0.80814539449690947 13 939 70 1031 5 684
218 1.2067856094028393 0.81327169341885508 11.289283861962206 188 132 101 0.44039357717846722 1 976 5 587
217 3.2612356560851845 7.6978725787490196 16.760768054122465 125 91 76 0.92573019835364967 70 780 5 531 27 480
216 0.91791485447059884 2.6215798631432641 11.49889877072491 189 134 113 0.65418219181019621 70 732 5 480 27 345
215 0.97163452381067472 1.1617589184658679 10.981635428557619 234 167 140 0.96719249364316051 1 916 5 459 27 442
213 0.058527311241101859 -0.18713312987818068 11.415239367837726 162 95 52 0.66011725686819656 1 890 5 449
212 3.1259208687092603 7.7706116400269982 16.593039849460197 105 62 53 0.80230490146232347 70 574 5 407 27 381
210 0.84821535737612552 1.0520912220522896 11.064272275998178 69 30 10 0.78773025678255026 1 910 5 313 27 101
209 -1.9100403457999375 -0.31551539794205341 15.875456265935023 197 108 48 1.0363068312464454 70 388 5 286 27 78
208 0.64667164050612791 2.5495370215786708 11.484014447226643 177 130 101 0.35335443659379973 70 260 5 129 27 154
207 0.37961841411217739 -0.99266895339365657 10.938957355253777 228 161 108 0.60414693641319717 1 629 5 39 27 46
206 1.5612838684547348 1.3202121679908487 11.435517987002951 153 147 132 0.91568376630725901 4 952 70 1010 24 1299 56 434 44 926 53 1123 13 1154
205 1.3178485500108148 -1.2597542934474413 10.272400881832054 228 157 112 0.66319256852954844 1 1075 70 1072 5 781
54 1.3712303209689773 1.2471542159713855 11.311645970060219 254 229 210 0.86773674755717956 24 1129 56 248 73 159 44 773 53 900 70 689 40 374 12 363
47 -0.21643647424672796 -0.41927395955929397 11.549801714987423 215 168 152 0.86145616716327422 24 1086 73 83 31 927 53 746 44 808 40 344 69 21 4 433 1 887 5 445 70 636 27 429 12 700 59 924
42 1.7460820697090222 2.1647703967161993 11.556451539280031 200 127 88 0.76141695009229982 24 1356 56 519 73 404 44 962
41 1.5886449967857477 1.6142719708445932 11.388404981849813 193 95 84 1.567538863813418 24 1345 56 486 73 384 44 951 53 1155 40 724 69 680 4 1034
168 -0.27485471821020202 -0.54530808698522137 11.491176493028087 152 113 89 0.42201976679668207 31 108 1 433
40 0.46942676954792334 1.6612028756024155 11.217360276528666 167 89 72 2.6901666260691384 24 1344 56 518 73 386 53 1177 12 1079
167 4.2072324992803329 -0.24105842350208451 13.47667088466843 196 130 100 0.61806611307605008 24 615 1 126
39 1.199920181472278 1.3329862084660877 11.009804305562904 248 236 219 0.6150855570595567 24 1343 56 485
166 0.10838076727670509 -0.44740107622911307 11.721512854185457 59 46 56 0.62489156272926039 31 140 1 85 44 100
38 1.8344868431198205 1.1250793979895688 11.421320058465884 106 71 49 1.2300650977241836 24 1342 56 506 73 340 40 765 69 727 4 1033 70 1067
37 0.96626997489572974 0.4133183298017768 10.765122957727726 240 215 200 0.95652664229658491 24 1339 56 482 73 337 12 1118
164 2.3518132910250893 -0.53220243131906442 11.237364085908551 48 12 3 0.40844029504535567 69 591 4 938 70 1030
36 1.9216075153619665 1.8060242750155462 11.591322383841405 204 142 107 0.91133287257800855 24 1322 56 492 73 348 44 927
35 2.1292761349214504 1.0139820490989271 11.606973804752398 198 135 104 0.70008533427361175 24 1320 56 484
162 1.02202092513815 1.187789004672674 11.281797989021928 144 75 54 0.55035827795770709 40 570 69 443 4 826 70 955
34 0.64646826624987264 -1.5546346024318727 11.102840669504495 218 152 106 1.1583924508170409 24 1309 56 448 41 841
161 0.88192643832900686 1.2837800977619092 11.236729786559392 246 255 250 0.57314366395027805 40 569 4 825 69 442
33 1.6253310637813043 2.5023002325483583 11.745912980671296 146 97 71 0.11553362189400507 24 1302 56 464
32 0.14342178336092259 1.7670618804589058 11.500798395064756 191 133 104 0.26483810715791056 24 1300 56 491
159 0.97508840210822223 1.04773244047407 11.092027518663004 255 232 218 0.80627844953479122 40 475 4 696 13 624 70 860
158 1.9367492758901943 -0.36965263829337031 11.612852586623699 254 241 216 0.18585227261711879 31 509 4 447
30 0.87793537673751953 1.3404904801709541 11.176251830356581 251 239 225 0.079695623268247195 24 1298 56 462
157 4.3145647978802719 -0.82320945782107979 14.71893456030819 113 66 22 0.5569912026083208 40 340 69 38 4 443
13 0.5927114016043642 1.2378954759263403 11.390555154226442 112 51 33 0.064287256422874278 24 1007 56 242
12 0.53590294258328419 1.282221631602156 11.278935689247524 241 227 206 0.31837904245273801 24 1006 56 243 44 691
11 1.028079768829866 1.0455982852443146 11.119355417791423 223 187 172 0.32414680483359426 24 1004 56 106
135 1.4524653911590975 -0.39966677358175207 11.473630679204637 201 131 92 0.83189655967194653 24 1174 40 638 4 883 69 515
7 0.84964214463949794 1.5837496686632531 11.294475920968319 212 208 197 0.58763910485613957 24 865 56 256 44 701 40 167
134 1.609666697615638 -0.73494902962656605 11.391712506595788 188 118 82 0.30305202907244516 24 1082 40 447 4 664
6 0.55132634353791365 1.4860372129592756 11.514757784017647 216 204 188 0.39114508377381807 24 859 56 115
133 1.5509510402228579 -0.39556438887384959 11.386148917704441 141 75 40 0.52730982534510773 24 593 40 87 4 438
5 0.55132634353791365 1.4860372129592756 11.514757784017647 216 204 188 0.39114508377381807 24 858 56 116
132 1.550767570492573 -0.39497871333645945 11.382161786136521 141 75 40 0.41360224927133132 24 592 40 86 4 437 70 396
4 1.4644064894822773 1.2005512110794341 11.314454883243931 100 43 26 0.044880812996017927 24 857 56 110
131 0.56430403622152525 0.058419287371182169 11.112927594290541 176 97 54 0.80824590223232118 24 1352 40 775 73 399
3 0.25286204017163511 0.51213794234635168 11.288119716944092 209 129 87 0.66938437240696491 24 826 56 228
130 -0.12353605932492567 -0.74253834079770364 11.127435355146163 192 124 87 0.92189810755179491 24 1332 40 744 69 666 13 1183
2 1.827068447818432 1.3520660151816344 11.586443563507709 120 78 55 1.5436277176738318 24 672 56 342 44 456 40 375
129 1.0127122064290039 1.5238913851165055 11.326824050425479 64 57 41 0.86386407971275581 24 861 40 169 70 470
1 0.6277087982214824 1.4862414692783172 11.363526375418314 23 9 5 0.50548133247890148 24 345 56 117 44 453
128 0.94366170115432313 -0.60611422245623559 11.294861000133546 126 95 76 1.0285580193600583 73 333 41 849 24 1315 31 997 40 686 69 581
14 0.67393229343179439 1.2584474910093484 11.274046450254167 248 240 214 0.79985669242246593 24 1008 56 247 73 98 53 980 40 476 13 623 70 688
141 0.33748048172537431 0.32601229495458794 11.12051742219365 129 79 45 0.89240646413494518 24 990 40 639 69 301 13 791
15 0.75310698605780968 1.2229384016306777 11.325814613129511 121 59 44 0.10860142633681258 24 1009 56 246
142 1.6414442956637616 0.21291614380294799 11.447410566431826 133 76 41 1.4067823355615103 40 557 69 303 4 687 13 446
16 1.0780222841033331 1.53210750906638 11.071523106427323 226 219 203 0.16773867673867954 24 1024 56 261
143 4.5209262747031707 -0.46496564982686345 14.917045185596828 128 77 40 0.19985369430029645 24 980 69 305 56 217
17 2.3515574041201868 1.9486499523998866 11.882709719742003 102 66 44 0.94639290025485789 24 1026 56 270
18 2.2123169324345984 -0.51133623575740306 11.534297419565176 199 160 139 0.85227551415844949 24 1091 56 216 73 78 44 661 31 875 53 964 40 338 4 440 1 888 70 643 13 82 5 292 59 837
145 1.974563224385846 -0.4923344035041482 11.767114347742258 41 28 20 0.50787898211964766 40 448 69 424 4 671
19 -0.19809546482523688 1.3425814606111313 11.678472047867796 133 82 55 0.71321734760553968 24 1128 56 331
146 1.9429356319442375 -0.21299359971111156 11.108946365449777 120 79 53 1.4141645148979678 24 1177 69 426 44 819 4 806
20 2.4539803605260926 -1.3345061798012661 11.596564665095041 157 95 61 1.0889929821080007 24 1165 56 302 41 642
147 1.9539731041979407 -0.11045636418105806 11.638544821868587 167 119 79 0.65571485577663324 24 1183 69 432 4 676
21 0.24967770767635339 1.35856311664837 11.852604712556115 41 13 2 0.038627724896144744 24 1206 56 241
22 1.2792349017291964 1.1823274271916857 11.316484227882606 147 61 48 0.14155858685554087 24 1207 56 384
23 0.82461264641829413 1.7794361204836135 11.19933254408744 220 144 137 0.12113763201083244 24 1209 56 391
24 0.50259256365219951 0.45397902883598895 10.870596614617739 204 134 83 1.018021624892081 24 1249 56 425 73 257 41 745 69 521 40 688 12 1007 59 985
151 2.7544310071549312 -0.48203302079669369 11.969238596996076 151 108 73 0.30703328368368271 40 548 69 518 4 887
25 1.3888611035981724 0.40903124121746215 10.742954155884426 219 148 106 0.98793388209558919 24 1250 56 379 69 524 40 640 4 898 13 798 59 986
26 1.682821553738403 -2.5736932697632038 10.822164822155079 160 85 53 0.25194792564772939 24 1263 56 358
153 0.092045131083798859 -0.50875919989999208 11.642846001221782 58 33 22 1.0140637835281214 24 1087 73 137 31 869 41 557 40 546 69 282 4 662 1 957 13 598 27 431
27 0.98329977630674592 0.19531283837475477 10.811072850056284 214 129 88 0.55278259830923127 24 1287 56 456 73 295 41 859 69 596
