# 3D point list with one line of data per point:
#   POINT3D_ID, X, Y, Z, R, G, B, ERROR, TRACK[] as (IMAGE_ID, POINT2D_IDX)
# Number of points: 117, mean track length: 4.5213675213675213
59 0.2249177543562989 -0.21406959767208605 8.5678875500785843 214 175 165 0.93642480934375916 47 1007 24 372 8 727
58 0.63285320770507159 -0.65933000458706292 8.7119003812984008 214 172 170 0.56477177164133396 47 915 24 365 20 632 5 1173
56 0.60961163388810313 -1.6013952360077417 8.8955759799453133 236 195 192 0.78528797245971627 47 957 24 356 8 599 23 1550 74 1501 28 771
54 1.2013318283496051 -0.14516059852740015 8.8590881309341469 95 57 49 0.24257207808326875 47 704 24 90
53 0.70920269404022851 -0.49231783654459987 8.7479696098074857 219 159 155 0.69303715373172237 47 969 24 76 82 747
52 0.8457685142186171 -1.5938078525507531 8.7125967238036335 210 185 175 1.1547262082744849 47 896 24 47 8 600 20 618 31 273 23 1464 82 663 89 315 16 561 5 1153 61 708 11 894 28 644
49 0.10194676038199431 -1.5901317322071904 9.0120947055721459 243 205 195 0.70949663686142495 47 956 24 43 8 706 16 558 74 1458 11 986
48 0.5285022847001003 -1.3145547202114636 8.6703812539806382 191 142 128 0.78722033101523015 31 600 20 716
47 0.56653137400884201 0.48444456991326296 8.3151966065020879 204 171 162 0.44033550060322035 31 295 24 376
46 0.74708092419648919 0.22575330962298279 8.8645076046177227 102 75 66 0.78608481173458744 31 79 24 103 47 857
45 0.44274533863993915 -0.16986985973683841 8.8934376136917219 195 145 144 0.91450807374772092 31 887 47 1132 24 866
44 -0.067826565559434809 0.17823076070164104 8.7616864948672859 133 101 93 0.71575429589238238 31 870 47 1115
43 0.45583659046698721 0.48626478461617278 8.5460013647746251 205 183 172 0.40918694099223096 31 709 47 1070 24 715 20 767
42 0.62245841465608842 -1.2520488234242886 9.0851445686556662 190 126 116 1.00143599905179 31 702 47 1059 24 713 8 811 23 1649 78 1174 11 1071
41 0.81328289537790277 0.047583080394268028 8.7931272969800638 183 150 145 0.94483523132236691 31 608 47 1010 24 517 8 690 82 805
40 0.85081478733746696 -1.7102510277001846 8.7091104978941694 136 120 107 1.0212113858560123 31 594 47 993 24 510 8 755 20 715 23 1646 89 573 16 666 5 1259 78 1168 74 1533 61 800 11 1019 28 769
39 0.86510370933616831 -1.7199921584635138 8.7541946287886496 136 120 107 0.70623500219213875 31 595 47 992 24 509 8 756 82 793 89 574 74 1534 11 1018 28 768
38 -0.25020783155906251 -1.6739708749248088 9.0854332564581224 94 86 67 0.69120935804923955 31 589 47 991 24 627 20 713 23 1645 82 791 89 572 16 663 5 1257 61 797
37 1.0991902832259364 -1.8931277641602371 8.4516047344660983 130 93 84 0.89619979247089598 31 593 47 986 24 620 8 749 82 787 89 575 88 435 16 554 74 1530 61 792
36 0.47905019137970961 -0.57453331006950836 8.8479544037870568 169 86 102 1.2333934943454823 31 64 47 913 24 75 8 682
35 -0.3706541973088372 -0.62606971675930201 8.7776438503231304 177 122 107 0.58198038824445586 31 58 47 910 8 622
34 -0.45790657877887403 -0.77177936046101714 8.9605510402781956 170 108 97 0.76470699678970167 31 46 47 909 24 361 20 558
33 0.16564183938669871 -1.2779777912268921 9.1808835099652644 215 158 138 0.47040174103745785 31 38 47 899 8 610
32 -0.035871658232390573 -1.7749417547478683 8.9518977109043867 231 186 180 0.75879315339066888 31 32 47 894 24 351 82 555 16 550 61 697
31 -0.53438931425006442 -0.7621744924394106 8.9811232198600042 196 144 126 0.58271395429448258 31 45 47 841 20 557
30 -0.54860940322698881 -1.9196167593535824 8.9436550631137877 194 154 139 0.98288193967985027 31 29 47 803 8 589 20 616 23 1352 5 1203
13 0.2582675753536478 -1.218645712515535 9.3198259850298371 175 123 112 0.8510394767626327 88 356 31 603 47 1000 24 514 16 668 8 793
140 0.78053715920762601 -1.7468647144784701 8.7616880695703063 62 36 22 0.58761745003569166 74 1042 11 480 13 871
10 -0.24389787485045136 -1.7835017437994702 8.9373584802732022 193 161 146 0.64936364363447774 88 235 31 260 47 955 23 1604 89 507 78 1114
137 -0.57589873688249471 -2.0174272160213524 9.161473692406144 226 177 144 0.11922852819048865 31 585 61 819
6 0.14987389619393426 -0.48436775245086822 9.1266482785260727 208 155 151 0.64326772867085513 88 75 31 455 24 74
5 -0.2947247731232619 -0.38908322454919453 8.7310865883826843 124 93 79 0.68779154534144715 88 73 31 284 47 966 8 681
132 0.49183666321709724 -1.095587304297819 9.6029344143559747 224 185 170 0.29571925619232597 23 1650 74 1564
4 -0.33255254610785717 -0.4887990169653203 8.6929375764393555 141 99 86 0.82158909290693527 88 63 31 59 47 911
131 -0.16500810760863507 -2.1742703310889562 9.3019611545727123 208 166 141 1.1790317877914545 23 1661 74 1557
2 -0.65367952741753377 -1.7946333951247946 8.8279842852663091 167 130 114 0.80227078644735439 88 46 31 30 47 814 24 33 82 653 89 428 78 870 28 761
129 0.69878246164428393 -1.0747383913394308 9.1907027842768496 173 112 93 1.1242355144229372 8 524 74 1325 11 955
14 0.45676518206512851 -0.70944445009818224 9.1403342721017982 219 168 172 0.56232105324999115 88 362 31 605 47 1037
141 0.19144536646502949 -1.0741062741070468 9.3654354374323709 151 107 98 0.27521155832974903 74 1206 11 826 13 1308
17 1.1023681148553661 -1.8952142677339392 8.4967902506720225 121 86 70 0.97740832065204075 88 434 31 592 47 987 24 621 8 748 20 709 16 555 5 1207 61 793
144 1.2862296276087504 -1.5057832301278369 8.1526475608529125 129 96 83 0.45767595722742005 8 667 11 988 13 1482
19 -0.54227005682840745 -1.8259788163420569 9.0449578405995741 101 68 54 0.99624064795792167 88 437 31 586 47 990 24 498 8 745 20 708 23 1640 82 788 16 618 74 1528 61 821 11 1014 28 797
146 -0.2331278510966153 -1.7873897906765466 9.0343455453406651 206 159 143 0.28933383185229899 11 981 13 1480
20 -0.14208294262053309 -1.9428071996308809 9.1082336141478777 122 86 70 0.74284592067671784 88 438 31 587 47 985 24 618 8 744 23 1642 82 823 89 570 16 617 78 1163 74 1527 61 820 11 1015 13 1514
21 -0.24752300094852947 -1.6660891953195482 9.0578197600317853 118 86 75 0.89866771722035654 88 439 31 588 24 628 8 747 20 712 23 1644 89 571 16 662 78 1166 5 1256 74 1498 61 796 13 1516 11 1020
148 -0.89671775013463628 -1.1823517693819803 8.649541048093667 73 52 47 0.19613173895928332 23 1665 28 840
23 0.45641587226130442 -1.0675319077355629 9.313352128415092 253 204 192 0.61207895114242683 88 489 31 703 47 1033 24 634 16 671 61 847
24 0.46717601317986329 -1.0261053928002408 8.9862430530093942 253 204 192 1.454437662579354 88 490 31 704 47 1032 24 635 20 743
26 0.1791788863428872 0.072050974277650462 8.8917617003527507 170 142 133 1.3567346960530469 88 494 31 708 47 1067 24 639 8 730 20 747 82 855
28 -0.13948066808947343 -0.41883752107371081 8.906467983265566 180 144 128 1.2267605981439356 88 533 31 809 47 1065
60 -0.54365448221155777 -1.8297700897731466 9.0583971866718862 118 86 75 1.1819035080212412 47 989 24 497 8 746 23 1641 82 789 89 506 16 619 74 1529 11 1013 13 1513 28 796
61 -0.8684785679620034 -1.5669030873154979 9.2752193977630384 167 126 112 0.81656406194400721 47 994 24 502 20 671
62 -0.76330698288150567 -1.292005321498507 8.6776898091618211 163 125 106 1.4268137788376114 47 999 24 503 23 1663 89 311 88 239
63 0.23129294507289289 -1.6341672644625727 9.0945019248085082 196 154 136 1.5624354893394319 47 996 24 505 8 752 23 1606 89 518 16 620
65 0.51522477473105699 -1.6971453145547197 8.9654429046373654 197 154 138 1.2042139413923945 47 998 24 507 8 707 23 1547 16 623 78 1068 74 1499
68 0.78439633669214093 -1.474520012707025 8.7354257262327391 223 190 185 1.1918246975979609 47 1084 24 755 8 827 23 1681 82 869 89 669 16 734
69 -0.98121460529952065 -1.1640940647893343 8.2626477261516857 235 195 185 0.89857008791328319 47 1058 24 757 23 1664
70 0.55844673658643473 -3.2208015238691035 8.8060556877674276 32 23 21 0.0097714853898371399 47 1094 24 820
106 -0.090856167124794843 -1.5886673370260884 9.0130317130387869 192 119 104 0.63309666080141036 47 239 23 1154 78 497 5 872 61 406
110 0.41354923165737656 -1.4387550817985237 9.2412136749975105 215 140 117 1.2549531687118676 47 1002 23 1607 24 629 82 794 89 519 78 1127 74 1502
111 0.50699453454277177 -0.044255811515880247 9.3004016896062236 111 60 46 1.1979252621305709 8 840 23 1693 82 873 89 634
112 -0.2632480956080937 -1.7729032370277222 9.1097491732298259 198 134 120 0.78227651278602151 8 853 23 1704 31 868 78 1260
117 -0.23292885563356783 -2.0347372210410288 9.1060270726680521 217 168 140 0.61603718553381237 24 350 47 888 89 293 16 306 78 1054
118 1.329628424965372 -1.5027171820970322 8.2488605019323273 125 98 87 0.54418295660036897 47 823 88 56 89 318
119 0.79691123058240432 -2.1489807371969936 9.1040915200361763 222 165 136 1.2161263456870406 24 619 89 597 47 952 16 544 28 762
121 0.62892383811602315 -0.97079015446565731 8.5395576469307812 186 128 114 1.6179849337172711 20 559 5 1037
122 -0.25693033602530224 -1.4832464322782137 8.8516839791045818 187 142 137 0.219504497428226 20 339 5 1104
120 -0.05135955391737497 -1.7046513163848738 8.993180921771998 125 73 66 0.97556999831635871 24 42 89 73 8 591 23 1462 31 263 82 654 16 311 78 984 5 1149
149 0.49260555491941704 -1.239111379948411 8.6457987967450798 252 187 177 1.3751761522570827 23 1608 28 841
90 -0.25472163898691463 -0.68102466332866085 9.0107576929666013 144 107 101 1.4426484173454348 47 286 20 370 5 907
107 -0.10755031810784808 -1.653666796604101 9.0112365530674587 214 198 179 0.5001422843622656 8 322 23 1359 82 556 89 72 16 70 78 879 5 1105 74 1191
136 0.78921961734620294 -2.0096207501087786 8.9992370469207863 129 87 61 0.59270090703333733 23 1637 31 591 61 791 88 433 28 801
77 0.19469235591778641 -1.904180912427992 9.0541044030905873 211 165 138 1.0986358452522715 47 654 8 490 20 81 23 1459 89 303
116 -0.17356090286770914 -0.93235842037165528 9.2595992328015075 238 163 138 0.83351650274531841 24 58 88 62 89 130 8 522
145 0.19474045184615657 -2.2978406170601673 8.3370750486298011 202 156 140 1.4477347808112484 8 867 11 1101 23 1718
114 -0.39205288460740501 -1.6654556565374792 9.109506987855692 92 55 28 1.3185752543383822 47 237 89 71 61 92
143 0.85565051789990809 -1.8374738177804384 8.669473569253924 195 163 158 0.2939091136151249 74 1495 11 983 13 1479
130 0.24274867576039272 -1.4138377306716241 9.1829192212161885 171 109 84 1.0250838737846162 8 809 74 1536 31 698 11 1063
71 1.2969112422924172 1.5384014127572783 9.0396985953740998 41 46 49 0.57123996779055108 47 1075 24 722 20 784
113 -0.2632480956080937 -1.7729032370277222 9.1097491732298259 198 134 120 0.78227651278602151 8 852 23 1705 31 867 78 1261
142 0.75827554021237198 -1.1706547108465777 8.9815667868976821 199 149 135 0.56836938422187588 8 611 11 951 89 444
83 0.35314518153356789 -1.7440188299997279 9.0175522891562352 243 196 178 1.3443837177097853 47 1030 8 790 23 1662 82 825 74 1532 28 838
109 0.19804137824348209 -1.657937031138774 9.5107081312190296 199 128 100 1.3101166421496169 47 997 23 1605 24 506 16 621 78 1067
138 0.34955298147194441 -1.6520730597035553 8.8509100110150243 243 197 164 0.60130653353419472 31 687 61 822
79 0.54484565458852308 -0.6789169941551132 8.9800506774907998 243 205 190 0.11271459278431897 31 62 8 625
125 -0.37347673223337391 -1.6557322472524927 9.0684769368023179 55 31 21 0.72572970436624851 23 174 74 790 11 110 13 196
105 0.95844345394059083 -1.6733520390704351 8.5394814325999242 184 155 137 0.27125284426454377 47 220 23 1146 82 402 78 713
134 0.45777121628106021 -1.9058053749608632 9.5549758643159386 223 171 131 0.54165453122928919 23 1460 47 815 61 638
75 1.0598821778096126 -0.7791932916507176 8.4383670703728146 198 151 121 0.57800369975904475 47 303 8 384
128 0.13229963657288646 -1.1684984938890228 9.3663150855626238 176 116 90 0.75363238802907473 8 673 74 1324 89 322 13 1445
127 3.2246134406749642 0.67921340776470596 8.8742382386066581 43 72 129 0.61043857037467364 23 1030 74 949 11 623
126 -0.15545299866981446 -1.6559091605280751 9.0302881196840854 77 67 58 0.041638225857569565 23 176 74 791
124 -0.37347673223337391 -1.6557322472524927 9.0684769368023179 55 31 21 0.72572970436624851 23 173 74 789 11 109 13 197
104 0.95454086936912441 -1.6864452075260952 8.5850962979863823 184 155 137 0.99784219953865017 47 219 23 1145 82 403 78 714 5 1022
103 -0.25738547377956561 -1.2217628653404213 9.2297632048267619 238 195 188 0.29139947513890335 31 885 20 806
102 1.2067186479836829 -1.6092661104751413 8.3188266477986428 199 165 155 0.99873717216907787 31 756 20 758 88 531 89 629
101 0.25960626240823181 -0.84631719953784457 8.7838510982950435 147 116 108 0.59649364387095849 31 701 20 742 88 491
100 0.51050788222186483 -1.2617182004206919 8.5282229859065719 208 161 155 1.0360130446974771 31 599 20 717 5 1266
99 0.18877322124939439 -1.6578164756859903 8.8443084299901464 185 141 128 1.1506966001988683 31 441 20 714 5 1258 61 798
98 -0.34655551990488825 -0.046779093049596529 9.6038154384346015 188 149 146 0.45082822773537157 31 290 20 689
97 0.92277382038776312 -0.52790042226833434 8.7846750203390993 219 180 167 1.0723096740123015 31 459 20 686 5 1177
96 -0.4094225507449239 -0.44151038476704108 9.2865121582267367 186 152 144 1.1810039537061434 31 452 20 682 88 365
95 0.50487979207952993 -1.6344879911733132 8.6942448845850073 196 156 148 0.8131385377202609 31 590 20 674 5 1209 61 799
94 0.47679771439632435 0.049859503097561965 8.8847910157619374 198 166 160 0.41645511561280307 31 291 20 641 5 1186
93 0.16552783687552047 -0.95418715229687734 8.6373532409482419 222 179 173 1.0299156824767994 31 50 20 627 5 1221
92 0.69816936967708743 -1.0223932503551698 8.5456982743120609 198 157 151 0.61895439683156372 31 53 20 555 5 1038
91 0.77079129895004295 -0.62502191664955997 8.7049926615817697 195 161 154 0.79000043651196339 47 320 20 375 5 739
89 0.7856214331885828 -1.8971304767954713 8.6759848323806743 126 96 86 1.1085246536564037 47 644 20 331 23 1356 89 80 16 77 5 861
88 -0.20226659110903988 -1.7266476788058518 9.1019159361979263 69 64 53 0.049023376237074555 47 652 20 103 16 69
87 -0.69964594057676488 -1.5655584061187244 9.0515684216620684 176 140 128 0.54708481453093394 47 234 20 97 16 66
82 -0.030759007897434187 -0.53804085312787997 9.1594786380116187 209 169 144 0.58243418363521382 31 454 8 723 20 683
81 -0.27677019940698666 -0.59689132534646561 8.3454503874085386 225 181 154 0.48839089860499024 31 61 8 677 89 326
80 1.1919156453186812 -1.680506336248303 8.4734172369869061 206 169 147 1.0184775545437215 31 266 8 666 20 621 11 944
76 -0.40451239674957873 -1.8698412502955295 9.0397496219667328 128 87 67 1.067466625996234 31 31 47 651 8 486 89 301
74 1.0707162118535891 -1.7033652745160459 8.6168444670168274 216 168 145 1.1797141420457404 47 657 8 333 23 1147
73 0.74575035250379007 -1.686608642312065 8.7537833495821733 224 211 177 0.74123404584949582 47 656 8 332 23 778 82 401 74 795 61 561 11 683 13 872
72 0.022970644096231022 -1.0662153920233233 9.0184703869171994 210 163 136 0.19269573146778951 47 266 8 119 74 831
