# 3D point list with one line of data per point:
#   POINT3D_ID, X, Y, Z, R, G, B, ERROR, TRACK[] as (IMAGE_ID, POINT2D_IDX)
# Number of points: 397, mean track length: 3.7697841726618706
249 0.32624615075592339 -1.8511865242636285 10.704879907515938 197 119 85 2.1761166127831819 54 1008 98 954 56 616 17 1064 19 1152
247 -1.5752383393444185 -1.2008822762223148 10.678951104792679 205 120 93 2.0035957904056674 54 945 56 586 34 761
246 -0.49256983063927839 -2.0561351521754996 10.18641052065715 97 69 48 1.4581976114520419 77 846 56 578 5 2686 97 1778 35 953
244 -0.83295512169292163 -0.40378863789041419 10.483663131289259 154 60 58 0.95190427616607287 54 951 56 561 80 521 35 870 40 910 45 1347 20 466 12 381 15 1154
243 -0.56700603661575122 -0.70599187591708101 10.515768013997844 135 79 68 0.89297737265689547 62 728 77 853 56 559 34 857
242 -1.7744001858395193 -1.8392279949639976 10.463799010208458 215 156 131 1.3741264156735922 54 887 56 542 19 1065 12 402 80 588 5 2499 75 929 34 847 40 921 35 958 91 620 4 882 44 770
241 -1.8139627789716848 -1.9793500374612412 10.446566308380548 93 66 56 1.1666789839258047 54 886 56 541 19 1063 80 403 91 597 18 349 58 662 44 712
239 -0.46961708025314419 -1.5233984897267299 10.697747584964441 222 156 132 1.1633645176955254 98 887 56 495 91 602 44 742
238 -1.2656228734944779 -0.26782889528669857 10.817750247412347 202 135 122 1.5759598136051598 54 836 56 432 75 617 90 366
237 -0.12838900298873762 -2.4037056505709815 10.414396346630161 194 121 89 1.0115376897166424 77 581 56 406 80 64
236 -0.52516188389141205 -1.2488609577127572 10.557130436016623 221 140 110 0.99549230739040018 62 640 56 98 19 898 45 1003 20 326 91 340
235 -0.92231985060230559 -1.0414561975411083 10.13606848349243 253 179 153 0.24198368619468105 54 647 56 97 4 694
234 -1.5548063954352616 -1.7214346353068151 10.66230005724114 201 164 155 0.65828728140213255 77 590 56 76 34 481
233 -1.9338377783099157 -1.6833308761083847 10.609816464945748 87 41 30 0.65483189128064689 77 147 56 73 75 133
232 -0.71324975728985318 -2.060143891410275 6.1354380230465262 104 67 49 0.47100302118845488 62 531 56 30 17 646
229 -0.64955964064566918 -1.0595585483007171 10.573292738653384 176 102 88 1.6041673199286355 98 974 77 905 56 642 34 898 40 952
228 -0.74075006914817398 -1.3373187427796207 10.276618933697627 159 101 79 1.2984480307515505 54 1029 77 904 56 618 35 1039 34 897
227 -1.5725939559634456 -1.1720167629462614 10.5757792978561 195 133 112 2.0292671516476428 54 946 77 852 56 585 34 760
226 -1.4726626390314119 -1.3924241033216778 10.5265837957513 210 168 153 0.84828211747512439 98 852 77 851 56 494 35 754 5 2282 75 894 40 771
225 -0.66747815987761694 -1.6807436678415071 10.488429923658524 214 163 143 1.2158431527899407 54 822 77 764 4 765
224 -2.3834386521627233 -1.8644602870193492 10.520640805697813 134 99 88 0.4640222314266329 98 699 77 586 34 603
223 -1.4058017827182092 -0.30751098557901779 10.666222071827972 179 135 124 0.6890960787092022 54 659 77 471 56 272 17 269
222 0.96768286535284342 -2.0313307668598344 12.447512072664257 177 117 105 1.1175324739123882 54 209 77 418 34 211 40 532
221 -1.8701695820493407 -1.6857792038804975 10.674885135816927 170 159 154 0.89470135222101077 54 638 77 414 19 889 62 548 51 1552 5 1301 34 479 40 518 4 183
219 -0.047667623233959407 -1.7479429400621715 10.617488840815216 135 82 67 0.85431988348047105 54 484 98 154 77 158
218 -0.10531714453333468 -1.7716909034693906 10.603522058125041 193 142 125 0.52942755553920351 54 207 77 155 34 166
217 -0.61386321977968628 -1.7609440245445482 10.632416294473527 113 62 45 0.64413438447138904 54 200 77 150 19 299 45 312
214 0.19177168436030501 1.9962167685114616 13.053060529145531 229 236 239 2.51469350754684 54 1081 62 822
213 -3.098589007013167 -2.7927458261487184 11.448309603427884 17 11 5 0.88157928717635448 98 992 62 800
212 -1.5715894229621949 -1.462823523286144 10.722876678805108 199 156 139 1.6366504278833873 98 973 62 789 77 901 56 639 17 1056 5 2722 34 896
211 -1.3098396622768542 -2.1120381627966496 10.359231796752038 224 181 165 1.1926144218893944 98 952 62 781 77 886 80 734 18 651
210 -0.98826742608246299 -1.7657663644991108 10.349478754185618 229 178 159 0.94088466985582542 54 1010 62 770 77 872 56 614 35 1038 75 978
209 -3.4124368167634338 -1.8501315045014837 12.209046993449084 163 163 163 0.40331597448909662 98 922 62 749 77 849
208 0.20750600293633448 -2.3543275118560576 10.629304170613702 178 120 99 1.3061484204187885 98 886 62 745 77 818 56 483 17 960 97 1775 34 790 40 862 35 857
207 0.46479156197544635 0.18047444419862951 11.638918704951919 161 124 105 0.9396603496522058 62 732 40 912
206 -0.37884749495341713 -1.3207529035032322 10.698708318169697 217 154 136 0.6990002224382531 98 854 62 726 77 826
205 -1.4902311634364505 -1.9256301598819865 10.301501403623748 91 55 39 1.8315116958734892 98 849 62 719 77 845 19 1097 45 1381 18 463
204 -0.84457244978563917 -0.072505668150113792 10.37559133042765 134 92 79 0.71537235461410642 98 723 62 704 77 784
202 -1.0049704035169029 0.24336269686637735 10.286882215280368 103 72 61 0.31993343386328288 98 731 62 661 77 736
201 -0.4832530968483455 -0.55062105262906458 10.671061105153266 191 136 124 0.54460008805083893 98 716 62 645 77 774
200 -0.58819551613143084 -1.0140663101090845 10.354358520842545 190 127 112 0.75800651087847493 54 648 62 642 77 711
199 0.11790558022434794 -2.1208574102761828 10.68895882518669 150 122 110 0.99766420044807025 54 742 62 627 77 704 40 662
198 -0.17544051568215865 -0.27366678664630723 10.874812043748792 214 167 145 1.3462032669247812 54 660 62 571 77 650
195 -0.59603276634821256 -0.54856528763236689 10.595287660978999 206 145 135 0.69047384480601948 54 510 62 429 17 537 34 239 40 223
194 -1.1988724774057771 -0.43134152567212392 10.711789606779377 156 86 80 1.1666879790375344 54 236 62 427 77 449 17 535 45 1026 19 808
192 -0.54455750488519905 -0.53339392524517659 10.751963002972277 204 140 131 0.94706919200331163 98 198 62 186 77 234 20 105 45 822
191 -1.5317829261524876 -1.717622182950856 10.651849731293719 213 186 180 1.2036606547752082 98 147 62 132 56 75 12 71 34 480 40 160 20 228 45 983
190 -1.1346338914206795 -2.7515129226783812 10.578945891678174 212 167 144 1.2797082037183583 54 1083 98 1011 56 703 90 612
188 -1.9916046696173337 -3.9346145755860968 10.678314642886848 50 34 14 0.92019125643436706 54 1078 98 1009 62 810
185 -1.0482880751550536 -2.0490422530839125 10.310229182627202 213 172 142 0.97584424587333329 54 1063 98 994 77 914 56 686 34 920 4 935
184 -1.0600373505839671 -2.0661437091758872 10.362773006854566 213 172 142 1.1539599895418773 54 1062 98 993 62 802 77 913 56 685 35 1125 34 921 40 964
183 -2.2241237409332899 -3.1859138111617744 10.608256294004452 177 131 95 1.5348240335653567 54 1061 98 986
180 -8.8445048170458538 0.75467385150317046 26.329611031365797 184 185 187 0.6896816563439534 54 1054 98 988
179 -8.8445048170458538 0.75467385150317046 26.329611031365797 184 185 187 0.6896816563439534 54 1053 98 989
178 0.14880237463222326 -0.33136948980273079 11.574361281505411 188 145 111 0.5498188003673018 54 1052 19 1161
177 -3.0598410752232628 -2.0291171675536996 11.662802233782685 29 24 18 1.1455037480743175 54 1048 98 951 62 765 77 899 56 675 90 589
175 -1.2851993720812349 2.3332452595329176 10.367958778673097 241 241 241 0.048506468110093799 54 1041 98 983
174 -1.1602366125502619 1.9915267051930696 11.101230395629122 111 111 111 0.53008485197259814 54 1039 98 961
173 -0.7755456551976645 0.31052357042180001 10.799096938067196 192 160 139 1.0846666574817099 54 1032 98 979 77 908 34 913 40 961
172 -0.37861454552626711 -0.55000559775158397 10.6552400902785 149 112 85 1.1333613003051022 54 1030 98 976 62 794 77 907 56 644 19 1156 20 553
171 -0.85547545843592709 2.0268670422185537 10.806909266560607 247 247 247 0.86919885733269509 54 1022 98 963
170 -1.2077071825433139 1.7032244577488891 11.617902072734257 250 255 252 0.30521298173733774 54 1021 98 944
169 -1.437945228209168 -0.44881842790705873 10.695641491296888 159 127 99 1.4417712061743981 54 1012 98 956 62 774 56 643 5 2723 75 981 90 538
168 -0.86198001260789692 -0.61874773534869576 10.366038384809166 209 172 154 1.7217531012274352 54 1011 98 931 62 775 77 890 56 622 19 1129 17 1017 97 1827 35 967
167 -1.0023175155410196 -1.785923822083566 10.531327660697912 214 179 151 1.0016522909685355 54 1009 98 925 77 873 56 615 80 671 91 642 18 607 44 777
166 -0.27252646226679289 -3.6020227678036734 10.615763093194804 55 33 21 0.6172923742805434 54 1007 98 917
165 -0.579071710488955 2.4541981382861091 10.776982480942646 255 255 255 0.95267354043540187 54 1004 98 907
164 -0.36375483853714996 2.3269066392692483 11.100269447367179 219 219 219 0.3383402638788956 54 1003 98 905
162 -9.3373019605081549 3.190551897792989 26.791563553954774 25 25 25 0.017008284922865536 54 997 98 939
161 -9.3373019605081549 3.190551897792989 26.791563553954774 25 25 25 0.017008284922865536 54 996 98 938
160 -2.2041839287580118 -1.9105761388344162 10.463612652378593 75 42 33 1.3589565639772165 54 984 98 924 77 871 56 613 17 1008 80 587 5 2613 35 957 40 866 4 879
159 -2.2123426323802415 -1.9168608448469471 10.502689746383904 75 42 33 1.4893376074001272 54 983 98 923 56 612 19 1122 17 1007 12 434 80 586 51 2104 5 2612 40 865 34 744 45 1380 20 509 91 640 18 545 4 880 58 790
158 0.10553263877872371 -2.2038355540118322 10.553400666331003 67 41 21 1.1544771721203921 54 982 98 921 62 748 77 848 56 580 17 1004 80 670 97 1781 35 858 40 904 91 622
157 -0.86565608579978415 -2.3653926472406637 10.156737230257798 202 146 113 0.52222568234292643 54 981 98 919 40 917
156 -0.032519263712046644 -3.460487129105799 10.670891457080357 144 103 65 0.41986044279477069 54 980 98 882
155 -0.75154714799322531 -3.3633296836453566 10.2434078977096 189 151 122 0.032235078141826468 54 979 98 918
154 -0.90706433508707252 2.4923060128864183 10.678500403261511 226 226 226 1.2424144957149961 54 969 98 871 6 1072
153 -0.77142614388993325 2.3905844865769894 10.738328770414498 103 103 103 1.3590031904080522 54 968 98 906
152 -0.88008211631103528 2.1977505190867639 10.701733644385376 247 247 247 0.45099088042301172 54 966 98 904
151 -1.3606936722646708 2.2568997259534265 11.412459917083474 249 249 249 0.45398278314535367 54 964 98 868
150 -0.82601706452573465 -0.41371824136571567 10.486006802712327 152 81 75 1.0072828798340807 54 950 98 856 62 729 77 832 56 562 19 1081 80 520 35 871 45 1348 20 465 15 1155
149 -0.91165183567643449 -1.031183264321835 10.143441205001805 233 198 179 0.47334607441083665 54 947 98 888 56 587 4 890
148 0.20626476790287793 -3.2918300468908228 10.784775328095883 144 116 94 1.3684876774144246 54 943 98 883
147 -1.9308368963714448 -3.2908721808923631 10.41287464184431 191 142 109 0.55281434457818746 54 942 98 844
146 -1.1811622666440813 2.3670463434274356 10.806130245975162 242 242 242 0.25516856835091373 54 927 98 818
145 -9.5468664367354563 3.6966775615870819 28.343000025691257 209 209 209 0.98384353989581408 54 923 98 810
144 -9.5468664367354563 3.6966775615870819 28.343000025691257 209 209 209 0.98384353989581408 54 922 98 809
142 -1.0445318504346945 0.92134152151015924 11.380967743662277 196 170 145 1.3492992982298775 54 916 98 812
141 -1.1539602475645563 -0.50634124730491814 10.484261852341486 208 165 144 0.69137651056551908 54 906 98 803 62 694 77 773 56 503 80 88 90 357 18 232
140 -0.36931255690271259 -1.2993465903064543 10.640567902753535 202 147 117 0.47100799393157922 54 902 98 853
139 -1.4352861230520215 -1.0954492893897392 10.624010776004042 219 184 162 1.3214446062758283 54 901 98 855 62 689 77 769 56 552 35 759 40 873 34 816 91 603 44 744
138 -1.0771060747004297 -1.3003284097495729 10.180919949142769 170 114 86 0.77522908412226754 54 900 98 784
137 -1.0771060747004297 -1.3003284097495729 10.180919949142769 170 114 86 0.77522908412226754 54 899 98 785
136 -3.2085411202781531 -1.6116098619234107 12.253103387042225 168 126 104 0.18499099214082809 98 590 56 549
135 -1.2489316140491913 -1.7576093596854527 10.461195172526205 170 124 100 0.79774644853379473 54 893 98 773 62 750 56 543 19 1072 17 901 12 369 80 408 97 1437 5 2501 35 747 75 933 34 746 40 868 45 1331 20 451 91 600
134 -0.028577742176728822 -1.8696256562466222 10.587866131382137 110 60 37 0.27765542018370304 54 892 98 775 56 487 19 1068 4 822
133 -0.04024733079866518 -1.8753844316659412 10.629578496682345 110 60 37 1.0253896825007518 54 891 98 774 62 631 56 486 19 1067 12 331 51 1985 75 839 20 379 45 1212 58 608
132 -0.30523918688114698 -1.8917091360107352 10.679889585313262 134 118 105 0.98061459352616609 54 890 98 851 62 720 77 850 56 545 17 964 19 1099 12 405 51 2036 97 1714 5 2618 35 749 34 806 40 906 45 1332 91 601 4 887
131 -0.7768922953017604 -1.8192660127980158 10.494162139251909 158 112 79 1.0916938812265344 54 889 98 850 62 751 77 820 56 485 17 963 19 1066 12 404 80 514 97 1713 5 2617 34 747 40 869 20 485 91 568 4 820 44 677
130 0.41983240319931353 -2.8779196124789324 10.789562051527119 51 29 16 0.23865530012739034 54 884 98 845
129 -0.63504627720789153 -3.6071307462660989 10.506945218397068 94 68 43 0.54014405690092882 54 881 98 841
128 -0.89537277837833107 -3.49935132231799 10.253968244579454 110 80 55 0.06086874958175871 54 880 98 840
59 -1.0986289898587778 0.43370134980408781 10.789482094987303 127 97 74 0.44033928849934562 54 555 98 474
58 -1.2983854015074878 0.37109919877506786 10.931420096022649 114 83 54 0.12576490698534235 54 546 98 244
57 -1.2948926728709702 0.17206585830746532 10.724637633009268 195 158 132 0.99586130516606119 54 545 98 462 62 456 77 480 6 698
56 -1.6767042691671896 0.26469228796152211 11.197740525767218 143 100 66 0.49295719124517107 54 542 98 242
55 -0.12736625801972679 0.061925353158344139 10.910268786996898 164 130 102 1.4567959144768325 54 531 98 467 62 445
54 -1.4934756040832378 0.13784315586548146 10.711196941592837 148 111 80 0.91289442681217525 54 529 98 461 62 442 77 652
53 -0.68505154284246883 -0.62909463743873428 10.606294265571593 180 141 124 0.58595416965080427 54 509 98 195
52 -0.68505154284246883 -0.62909463743873428 10.606294265571593 180 141 124 0.58595416965080427 54 508 98 194
51 -0.50242074586180618 -0.96898301460542147 10.503635888803718 159 104 82 0.69634831120502194 54 503 98 441 77 200 40 195
50 -0.66205078280889773 -0.92641829353223304 10.430265229191015 203 156 138 0.31926240241255804 54 502 98 182 77 199
49 -1.1886125129384073 -0.91382783544095292 10.413522717843369 162 117 93 0.40944085476705261 54 498 98 178
48 -0.046698599087489211 -1.7352027837693711 10.494023010706728 159 114 91 0.72452575136333641 54 483 98 155 62 554 77 157 19 622 17 660
47 -0.40494801610932496 -1.9221219303330326 10.682264261582846 87 63 50 1.0966025283222469 54 471 98 424 17 659 97 1118 5 1864 56 235 75 754 91 327 44 522
46 -1.3771163501080599 -1.8640266826989982 10.337529558752122 180 143 116 0.83046549029016459 54 470 98 137 34 442 4 598
45 -0.39303911576651379 -2.0713446521691496 10.327076679876397 93 61 44 0.46371919575631487 54 464 98 582
44 -0.47530151591587344 -2.1694850551024651 10.198053814001943 191 157 131 0.44596500621177659 54 463 98 121
43 -2.6616931246074342 -2.8089581481706967 10.888304191538996 111 75 47 0.25665679312541201 54 452 98 94
42 0.35665808237909885 -3.1041789380886362 10.864842645206689 79 47 27 1.0354672715179225 54 450 98 570
41 -2.529783219321144 -3.2812647302907245 10.908461334605446 144 100 66 0.57443696281208689 54 443 98 81
39 -0.0029997995425400936 -3.4334369672860285 10.731168297452886 160 117 85 0.47793993487209108 54 437 98 406
38 -0.1789825976613417 -3.4396468411610082 10.533095641490872 141 88 56 0.55183330207265513 54 432 98 405
37 -0.64172156710589479 -3.4333361570535699 10.376867547735936 178 142 110 0.029200943746016346 54 431 98 72
36 -2.3571829123132111 -3.4001855841944995 10.629721021613944 96 52 23 0.17170086531970472 54 425 98 56
35 -0.84934219905751374 -3.4690071397775131 10.26116214896655 103 74 48 0.027305520928965231 54 416 98 68
34 -0.74393309077192504 -3.7571799193843014 10.31046301488918 122 107 88 0.17523818749547948 54 405 98 47
33 -0.78352944080195619 -3.8328559985651438 10.327512356173939 122 109 92 0.16134744303819964 54 400 98 390
32 -1.0316713723031772 -3.7053584370653811 10.239124882282114 61 39 22 0.64924583510830847 54 399 98 45
31 -1.0508212461834412 -3.8164929455371155 10.303148793155474 152 133 103 0.017682111616831274 54 398 98 44
30 -1.8851566071514605 -3.7161970655882834 10.215977667725134 20 17 10 0.84483087815671376 54 396 98 38
13 -0.87792467647399164 -2.4398594397531785 10.178436636270318 175 129 96 0.45628001431379905 54 156 98 416 77 109
554 3.3406509052155591 -1.7191374376358548 5.7104493010740258 43 18 6 0.46279138133082359 18 466 26 547
12 0.83953663376978516 -3.4083716963958697 11.490409121237992 48 40 30 2.2718767078685551 54 133 98 413
11 -2.8485338726875784 -3.2962193011346881 11.129395248716015 70 35 15 1.3396810656479268 54 122 98 401
10 -1.6116848349361146 -3.1949097690203643 10.063941695077753 168 118 86 0.48041873210195662 54 102 98 84
551 -3.6833011236483637 -2.1636033921689828 17.860918346492177 0 0 0 0.18851616190442327 4 497 44 530
266 -0.89865459515657864 2.8143101147319394 10.996875602458029 37 49 65 0.59138814205079315 62 778 80 619
9 -1.2303616006921725 -3.6554481281944611 10.158656518670963 135 122 93 0.67318604727540676 54 81 98 43
265 -0.25740036072941885 -2.0021678266381304 10.436482671584661 249 206 189 1.4076227767679013 56 581 62 747 12 435 35 959 34 840 40 922 20 481 45 1382 15 1204 91 621 58 663 44 769 26 434
8 -1.9124707302610036 -3.4619865118274595 10.224601908386074 97 73 52 1.1260120172676942 54 77 98 60
549 -0.35000289865259504 -0.83051998467362531 10.495876508540244 242 154 135 0.79894151914927602 12 475 26 506
7 -1.8152081487332559 -3.8545008163330552 10.265081445386922 117 103 90 0.98236444581249316 54 54 98 22
548 -0.0079546071562563644 -0.63522255374808789 10.643999820919182 229 156 124 0.20093387512841279 12 342 26 202
6 -1.813430635464069 -3.9345699037838382 10.369092149012072 23 7 0 0.95632124441721345 54 53 98 21
547 -0.014037714460711843 -0.35062590011569389 10.806006831295205 220 156 115 1.1696665940861319 19 967 12 344 45 1351 20 427 18 234 26 210
262 -1.5162529729424261 -2.018050368762716 9.9384693052843005 249 208 187 0.70149186243731232 56 482 35 856 75 947 34 800 40 861 4 853 44 739
5 -1.813430635464069 -3.9345699037838382 10.369092149012072 23 7 0 0.95632124441721345 54 52 98 20
4 -1.0717622527722332 -4.1396784036682792 10.307229515204622 63 46 16 0.90592954916392043 54 32 98 27
260 -0.22253594944384603 -2.2182884835012153 10.363121783339302 86 59 53 1.0703755180019183 56 538 5 2610 34 735 40 902
3 -1.4986685092144767 -3.9951019800617189 10.276830661400377 93 55 29 0.86516934744170904 54 29 98 24
544 0.15206771997685756 0.022000917260333867 10.880149523535012 186 142 97 0.8822236484664302 45 1400 26 507
2 -1.8756130884478859 -4.2093570004726759 10.905800684970094 139 106 70 0.64788029124351887 54 24 98 19
543 -0.83925941261853776 -0.56622210244628901 10.423016024094427 240 153 125 0.78787615012077494 45 1432 12 447 26 449
1 -0.92656308523150721 -4.449069126373038 10.707150522081976 124 107 89 0.20011423196963685 54 10 98 13
542 -1.6670941281907479 -0.17682728800245673 10.738891167744411 230 152 113 0.34735308122635239 18 379 45 1349
342 -0.28854774355543217 -2.0319019595547654 10.601487978786073 255 198 162 0.65234967489298512 56 544 80 515 51 2034
85 -0.27910463219518478 -1.7268754982894885 10.628049518185653 203 168 154 0.87812877119727373 54 747 98 709 62 639 19 952 17 840 12 330 97 1596 20 420 45 1287
343 -1.1038126519100087 -0.67938943452739109 10.440100295521137 187 136 107 1.0354532727753327 56 588 80 594 35 965 90 505
86 0.88906493073819659 -2.0394082654605472 12.24534556233206 196 159 139 1.5552057046014214 54 748 98 782 77 821 45 1218
344 -0.79308341282029948 -0.0083590972451806911 10.579662072330786 174 124 96 1.2107436556273057 56 623 80 596 51 2118 75 966
87 -1.0806980075383832 -0.62757541607370293 10.451947991356104 165 128 114 0.65204094497328202 54 757 98 446 62 564 77 433
345 -0.8597397236480292 -0.60276973475439166 10.593987963771983 242 178 154 0.90360693315650553 56 621 80 682 35 966 90 506
88 -1.3499813221494619 -0.43037195616258639 10.768006770941767 195 150 127 0.72285747340740047 54 758 98 605 56 120 19 964 5 1418
346 -1.0274195926919427 -2.7071494367632072 10.360223623979641 251 196 166 2.1301912865961095 62 823 80 880 40 977 18 762
89 -7.1942782611507097 -0.19948527941162283 19.048923276835101 179 181 180 0.51196543566447894 54 759 98 174
347 -2.1248392055572984 -3.6672614415110036 9.4845716249288099 75 69 58 0.021249050674358422 56 6 51 58
90 -7.1942782611507097 -0.19948527941162283 19.048923276835101 179 181 180 0.51196543566447894 54 760 98 175
350 -0.12979609864001868 -2.4123763641261089 10.362192755870833 217 153 118 0.30566771952961252 17 1036 51 2102 97 1817
93 0.21622124177816265 0.19779022653728656 11.430226718798959 74 42 24 1.3015713654253396 54 770 98 732 77 788 34 822
351 1.05773638928088 -0.080404146917921304 7.0601494542222296 66 69 62 0.60206770893749917 17 1080 51 2166 97 1899
94 0.10684123698116485 0.35568431060443401 11.782075561764804 53 30 14 1.3416628736095386 54 771 98 861 62 776
352 -6.6170829628068555 4.9636953873471867 21.065849224863417 71 72 67 0.19816909565199109 98 1014 51 2172
95 -0.65500747998951026 1.7767382465711605 10.921992955351914 252 252 252 0.60937268324045735 54 780 98 747 6 880
353 -6.6170829628068555 4.9636953873471867 21.065849224863417 71 72 67 0.19816909565199109 98 1013 51 2173
96 -0.87592814789077877 2.3607950623631733 10.72802139995011 114 114 114 1.0504735324130936 54 786 98 749 6 887
354 -1.9302552642174804 -1.5812111280574039 10.538254922608395 154 107 96 1.3271976655174591 19 888 51 1917 98 591 62 407 77 413 17 663 45 1128 20 67 91 439 44 624
97 -0.87592814789077877 2.3607950623631733 10.72802139995011 114 114 114 1.0504735324130936 54 787 98 750 6 888
355 -0.30789430748673458 -1.8889761576969404 10.695854996728681 110 109 107 0.50869379164871276 19 1098 12 406 51 2035 56 546 75 934 34 807 40 907 20 487
98 -5.7381771950157159 -6.3828439491241511 14.766523345374996 191 48 54 0.19702479169794085 54 794 98 826
360 -1.9111613829847611 -1.7736166398215807 10.654645475869756 172 120 98 0.32879474213551996 51 329 5 351
103 -0.57124304828574468 -3.7622533630255424 10.430181609222839 51 33 21 0.17150997157810519 54 808 98 765
367 -0.68444151988146018 -1.7270677516822979 10.626222989420368 221 170 150 0.27627784941578115 51 1916 5 2269
110 -1.3153091020308361 -1.6186090107978972 10.536110335089271 213 182 156 0.51063870821592272 54 820 98 706 62 637 77 767 56 419 35 614 4 764
370 -1.117893829232685 -1.164504116416111 10.20110847019064 158 98 74 0.31460113008892598 17 1012 5 2690
113 -1.5119271416908042 -1.5335117367663418 10.666187016563009 187 149 122 0.58928716313418383 54 825 98 704 62 636 34 616
373 -0.80155809831307567 0.30497027224988843 10.722494205950142 174 121 103 0.63117705321606243 56 664 5 2755 35 1108
116 -0.4568021207495242 -1.1979153621174792 10.545489059632219 215 173 149 1.0521771867176786 54 828 98 788 62 725 77 768 56 498 12 376 34 763 40 874 20 459
374 -1.2599655744567373 -0.0033901292443857325 10.748037291558136 152 120 102 1.7221654984928823 51 2144 5 2736 54 1055 98 977 56 662 19 1163 75 1001 6 1152 34 900
117 -1.2011418894064554 -0.99128559566877761 10.413293738395394 193 146 118 0.22625317583484389 54 832 98 711
375 -1.1225886706674411 -0.84525011264878991 10.365771672707524 251 189 168 0.91007602513227848 5 1381 35 99 40 686 34 489
118 -0.75129505369146776 -0.92735223260492416 10.325087085848157 132 81 58 0.81334027938230713 54 833 98 791 62 691 56 263 17 912 4 830
376 7.6751898756556303 5.2723424708828883 22.199430576968012 83 79 68 0.055653063679692791 56 192 35 293
119 -1.2448603970855883 -0.57845489692218233 10.452925266609526 167 129 106 0.5068796991138681 54 835 98 801 77 771
378 -0.31635647475809564 -1.7328266826161474 10.735346881389324 243 197 171 0.66515911139091077 56 422 35 617 40 768 91 569 54 895
121 -8.312772835710124 0.42832972069288705 23.315637596172593 207 208 210 1.1320481584887032 54 841 98 796
380 -0.37120821280128624 -0.53188816457672483 10.644396108050296 144 109 96 1.181933593277231 5 1962 35 432 98 447 62 567 77 625 56 123 19 903 17 782 34 699 40 780
123 -0.97670658332112337 0.055905108011482442 10.579999006681163 211 169 147 0.67878094047842275 54 844 98 725 62 655 77 731
381 -1.9600627642499986 -1.5850445280406031 10.693742373496073 211 159 137 0.67483692337455448 56 240 75 578 40 669
124 -8.9329724223302591 2.6527765694709182 35.722101342658512 208 206 207 3.0541069344242535 54 850 98 806
382 -1.3842070700672078 -1.3758982187096855 10.494522486581243 224 163 135 0.65850666329647378 56 79 75 599 40 179
125 -1.0683846348127999 2.4377559287454917 10.602218689485452 132 132 132 0.34878535651466597 54 864 98 640
383 -2.6092059095432432 -2.2067007384020529 11.636082491575367 221 174 146 0.46577894388797336 56 654 75 1003
126 -5.733003617604882 -6.027744546225029 13.848657772048572 186 51 55 0.13430345655828413 54 865 98 825
384 -0.89336109538794839 1.946719500064761 11.347289990655597 110 114 145 0.13894866562638256 56 691 75 1011
127 -1.132495897474084 -3.504801163845936 10.197430214264182 112 78 58 0.21950104467895251 54 878 98 766
385 -2.4522051335357014 -1.7176808746559282 11.001642562720351 205 158 138 1.3064611866270492 54 188 44 389
386 -1.5885879123162794 -1.5400775832158056 10.912909137243933 204 156 134 0.41785639597598484 54 489 91 118 4 194
388 -1.5554860904388419 -1.7542439520901674 10.520711254657151 115 87 79 1.1058750549004532 98 136 34 161 91 326 44 377
395 1.2097233628704132 0.84036594908400064 13.310110423773736 12 25 41 2.0457919768613593 98 1000 34 923
399 -1.7858029387763819 2.0738502479632244 14.132585294464231 21 32 36 0.36378664977010527 34 312 40 604
402 -0.6404919535824205 1.8492397800303211 12.287450926463586 0 0 0 1.8195271069686907 34 520 62 591
407 -1.8913935083662323 -1.9281232877926171 10.162037663445565 62 36 20 0.15912990689590706 34 805 40 901
419 -2.212729773560588 -1.433440116050422 9.4981971357466932 0 0 0 0.57294454258687955 12 213 17 905
421 -0.45777911461636178 -1.2220956734882693 11.087692544691151 253 210 200 0.16134203546435544 19 1077 45 1394
425 -2.0928692684175747 -1.712402052824725 10.710348529763216 184 114 88 0.80075169787257894 54 190 45 783 15 221
426 -0.37416770905808128 -1.7334684828879929 10.568207130203293 222 160 147 0.45891964056943602 19 787 45 787
427 -1.521302662215279 -1.7170426016261624 10.612630826123828 215 200 187 0.98277699634140359 19 891 45 982 20 229 62 131
428 -1.3699145813243365 -0.35720950704070825 10.842398485875394 117 50 41 0.42259848685571894 54 234 45 1027 20 109
429 -1.7243879065414955 -1.7688965504234415 10.670953825578264 47 37 33 0.8037044055387863 19 950 45 1281 58 534
430 -0.84703237713964186 -0.24765658930524875 10.781557111492081 207 142 131 1.9321388007526501 62 755 19 1106 45 1397 54 953 77 860 56 592 35 872 20 521
493 -1.4204237867558569 -0.74268337175319643 10.472235140018217 214 157 138 0.98196345837377219 80 737 91 662 44 780
434 -1.8387107698931895 -1.6734097749075596 10.595934669069679 202 163 140 0.68983362512110868 45 981 62 547 20 319
389 -0.65981518934119943 -1.6654047901089415 10.550771324377553 255 215 197 0.26837284102550124 56 83 34 484 40 671
516 0.51492926059995314 -1.5778604916991426 8.5975432199973003 160 93 64 0.20837170295504981 19 885 58 420
517 -1.8887848091907498 -1.8195328556764458 10.919903108031594 42 9 1 0.87726395891619746 45 1123 58 428
458 -0.59360540917358406 -0.11726581117253518 10.577956210270855 100 62 47 1.1768521232775258 45 1350 62 706 77 786 56 506 20 467 15 1160
391 -0.54919055887834289 0.25529028688685385 10.623325312880507 234 191 182 0.92558348652029221 56 451 34 773 40 885
518 -2.1113792226283472 -1.9660261557658101 10.658522628034339 102 62 37 0.18415433868534944 19 880 58 529
459 -0.46960175570111851 -1.8913200626554685 10.608696540784578 83 43 25 1.1486003028665148 45 987 97 595 15 956
363 -0.32304295680927431 -1.6347112453153405 10.736582577536705 184 127 107 0.07825799339741106 56 85 5 1318 35 89
106 -1.9686241308199635 -1.6706409084810323 10.570789268039164 82 37 14 1.5296213153570057 54 816 98 777 19 1005 17 835 17 966 51 1913
490 0.10830035917896888 -2.2528240428340647 10.754293877300704 61 42 28 0.40455939101052624 80 669 91 623
431 0.96581520218543038 -1.9798961488945372 12.3517433631686 201 147 122 1.6215754992246056 62 552 40 533 54 210 98 594 20 325 45 1133
392 -0.21325188573166776 0.80582027749909912 11.637617605290869 208 163 144 0.35202631386154437 98 867 34 827
519 -1.0033104263351993 -0.97699220184209146 5.1701923746071197 216 134 114 0.048759774819072801 45 1416 58 732
460 -1.6987259465865734 -1.6361780301336262 10.418345260486173 224 198 187 0.55383656782334367 97 1113 15 1035
491 -1.0004046965530329 -1.7829425854840673 10.502350294587188 225 167 152 0.16452325770628401 80 672 91 643
432 0.027221948406391014 -1.8182865024554848 10.786196714018667 207 136 95 1.1026005265560623 12 219 45 320 20 76 58 209
393 -1.6214278714605685 0.82667123593204495 12.893161380469689 216 170 147 0.11292628192010656 34 880 40 932
520 -0.62196937412584852 -1.9269011804075784 10.42597351045 144 99 73 0.63159498843822826 91 80 44 124
461 -1.8198860089107001 -1.6338269196407504 10.394143807368392 79 36 20 0.70641858263655133 97 1592 15 1139
365 -2.5463273869289571 -2.7362813906131249 11.095390817719824 142 88 60 1.027193614971819 17 647 5 1827 40 651
108 -1.6551805129911012 -1.5800063360714742 10.656774421130255 217 186 171 0.9782013804696903 54 818 98 779 62 685 56 417 19 1013 17 903 12 373 51 1988 5 2281 34 686 45 1336 20 454 91 567
492 -0.20730869113336031 -0.5267202728334246 10.747131883112433 95 67 52 0.91748867830542435 5 2724 91 648 44 781
521 -0.033258127339623127 -2.1779133158089801 10.352945188459502 59 37 14 1.1949930781966165 91 322 44 369
462 -0.58360384352907457 -0.68674783574651554 10.60759344485235 160 94 80 0.98199079741391448 45 1346 15 1194
396 -1.3979617754751006 -1.7504942517240507 10.400692966626076 218 152 115 0.58953466374075514 34 163 40 509 4 603
523 -1.0110612340402507 -0.50301430305684114 10.732526672805434 94 51 32 1.0928994758606654 91 451 44 640
464 -0.64380336406361127 -1.6919592430447179 10.644813596158853 235 179 154 0.53069420302931447 19 618 51 1144
368 -1.3610774756049986 -0.56275482104351948 10.793811660194214 104 66 47 1.1023946472261508 56 560 97 1607 5 2528 35 763
111 -0.67299626689589298 -1.7042569338320603 10.565269881610387 207 171 144 1.045430829286508 54 821 98 781 62 686 77 763 19 1009 17 904 12 371 80 412 40 812 45 1286 20 419 91 520 4 766
495 -3.8003719025958369 2.639834956224286 13.230060477096171 38 38 40 0.34646277947719345 54 1085 91 699
436 -1.2014679057514297 -0.48577410900943452 10.599481296648548 216 148 113 1.6044987961409145 45 1298 20 425 58 547
524 -1.3641221978825486 -0.34859415145332245 11.297494576897611 221 185 163 1.7815445856993934 91 458 44 642
496 -1.4407186804305574 -0.41995406015935405 10.650487767997591 145 91 67 0.82524682078977074 80 681 18 614
398 -0.30135377783187645 -0.4760655904961788 10.9384824329283 244 184 161 1.2866418488090996 34 259 35 117 40 557
525 -1.446522618975002 0.037943488284888659 11.052883427897344 219 184 155 0.46666429056131675 91 533 44 692
541 -1.2418439758040556 -0.34884117058871783 10.562960253255012 131 40 19 0.71252101802640888 45 1300 12 293 26 61
284 -0.78823096976339868 0.26958023066288561 10.591016638154795 208 164 137 1.3796792617764166 62 796 19 1157 17 1070 12 503 45 1482 20 569 58 823
27 -0.65671821083079263 1.690496881444854 10.937081061577643 150 148 148 0.54679779058350897 54 358 98 300 6 588
401 -1.3225000780320737 -0.34413746210978063 10.416349309969441 211 158 130 0.75339010686940799 34 501 35 114 40 694
528 -1.6019535944762373 -0.050752655055983593 11.13063406610463 146 110 84 1.3141468464753714 91 606 44 747
14 -0.10571936076362143 -2.3295382083722007 10.369515070750015 137 91 57 0.2812058767581207 54 157 98 122
271 -0.72573051990282611 2.1470185715656425 11.542432992949424 69 74 92 1.5267171717157253 62 808 80 843
540 -0.38661155500944538 -1.7071783683640485 8.3617971893990521 234 159 120 1.1697803922533818 18 356 26 188
26 -1.3673076157334842 0.17350844998103795 10.774688645113407 150 113 83 1.098574714562728 54 296 98 226 62 214 6 273
400 -2.1155221953591217 -1.6410624314833273 10.429152593950137 161 107 80 0.8423439372983994 5 1299 34 477 40 667
527 -1.625708307326442 0.1341977727632431 11.076436355157064 87 64 48 0.75104412065174009 91 575 44 725
539 0.25917196449961138 -2.6193970546758694 11.062377280826595 119 66 46 1.6110038669796705 91 660 44 766 54 1028 56 653 19 1160 58 832
282 -1.5976260340513024 -1.4325626681899639 10.580384005799639 229 177 151 0.41711722828720932 62 410 19 894
25 -0.26980627049963563 -0.017559666859139754 10.799991435525071 191 147 118 1.541721701778979 54 275 98 235 77 484
411 -1.1782020624120688 2.2594102103813594 14.519920432522607 59 67 78 0.59339437142682305 34 931 40 967
538 -1.267761473809226 -0.13131578109248754 10.795189964872268 221 187 150 0.56096096143582141 91 670 44 803
281 -1.4087006638176798 -1.6815408673176946 10.639714560604252 155 97 75 0.39796700732062656 62 549 19 892 12 216
24 -0.61515538584457186 0.073372727533878274 10.399089503434146 164 119 98 1.5161412936994971 54 273 98 229 62 219 6 546
410 -2.272396470358593 -2.0734226377176097 10.252545230796731 187 132 97 1.0282946628913348 5 2719 62 766 40 941
537 -0.40180713588618344 -0.23282967675391059 10.853293394675928 195 149 116 1.0201671805385391 91 671 44 795
280 -0.15990538404486615 -1.8850549684764726 10.789018472574902 183 157 140 0.74713798773436102 62 137 19 884 17 503 98 140 12 74 51 352 51 1557 97 602 5 1288 35 79 40 148 45 991 15 830
23 -0.40803980866635714 -0.64872065100192056 10.743354505776082 134 92 68 0.29488545015076584 54 232 98 196
409 -0.64312051155486483 1.7285039779000335 13.851450805033178 244 251 253 0.12343986699933547 34 882 40 935
536 0.17252307676294501 -0.50274616556457674 10.967498536373158 194 150 115 1.7485394698978762 91 665 44 794
279 -1.3485958814660375 -1.384584546398818 10.453440886723568 187 143 117 0.051205648838101192 62 416 19 796
379 -0.14706852674725956 -2.4223377738222811 10.401590032993324 242 172 121 0.49561153204338942 56 579 35 954 40 899 4 851
122 -0.97498858532318844 0.053121266802063284 10.555331338381887 211 169 147 0.64658990875387334 54 843 98 726 62 654 77 732 6 872
506 -1.7931314215119203 -1.9783596452520695 10.356412897597988 52 22 9 1.6177564885888405 19 1064 20 480 12 397 26 364
447 0.95376840555916309 -1.9906924850107164 12.733857830273426 241 169 142 2.0406354566153668 12 514 20 551
408 -1.5649675577779558 -1.8286665600390379 9.849084612482967 113 89 79 0.60936288007731876 34 848 40 918 4 881
535 -1.1554204982646714 -0.57311754415146043 10.457136480347327 128 95 76 1.13028119390436 91 663 44 792
278 -0.06616233009091696 -1.8214516726935837 10.729462428873797 183 122 103 0.62914430308087055 62 138 19 789 17 213 97 603
21 -0.35816224530109519 -1.6978996734234562 10.715452368024863 213 180 161 1.0646393680764759 54 204 98 151 17 511
349 -1.5232345882642422 -2.1069389259499842 10.223430190726468 203 151 118 1.1992832602574208 17 961 51 2067 12 399 26 365
92 -0.61240222728232352 -0.0052530744682935393 10.638368687786288 206 162 138 1.1884843961258018 54 767 98 727 62 657 77 733 56 283 20 428 45 1237 15 1054
476 -0.26282296236856656 -0.32590640890653116 10.675331494128432 235 172 145 0.42978845632790214 12 453 51 2115 26 455
406 -1.1575078207996381 -1.7956933003744884 10.175866192933979 250 203 159 0.2692145268411712 34 745 35 748 40 867
533 -1.2230346044294886 0.27320742644385609 11.008782085291756 78 58 47 0.79077310255608035 91 650 44 786
276 -0.71645127117632235 -0.45920925479680247 10.491507583582353 193 119 104 0.41285163956685234 54 244 19 648
19 -1.9328744630264478 -1.7093571083176293 10.631870403796732 83 44 25 0.89236522483336222 54 192 98 134
405 0.20580404910970715 -0.7901564731858477 11.337860477564766 222 148 101 0.84529899183659185 34 765 40 831
532 -0.86018287346435218 -0.0086512900744869434 10.589268625349119 98 58 33 1.4672362387555828 91 667 44 784
275 -0.15123774064971782 -1.915299663256302 10.550743398958483 73 37 22 0.81744248986093193 54 474 62 136 19 608
18 -1.9594606479630592 -1.7248430949647644 10.546781041653755 177 131 108 1.4706032010889152 54 191 98 133 62 398 77 145 19 613 12 214 34 200 20 226 45 1122
404 -0.5902101853305689 -1.9038642537043224 10.503065901661307 227 182 141 0.56471321510888528 34 605 35 405 40 808
531 -1.5366706051750625 -0.37942784935675988 11.103204554569659 100 68 51 0.90752438382573031 91 647 44 782
274 -2.5091968592202636 -1.931482069080783 10.684196902884029 51 38 34 1.9021010742073876 62 681 98 920 80 668 51 2103 34 872 18 544
17 -0.10428292390880495 -1.9996377082147228 10.845963103431613 178 132 108 2.0611256542869687 54 181 98 139 45 788
403 -0.7121355438511352 -1.9221544455820641 10.260850952058904 238 178 142 0.82682195149279858 34 446 40 761 4 595
530 -0.85093173717286663 -0.5901059121291754 10.58350783693286 221 184 162 0.72595603632915806 91 626 44 775
273 0.14645690877778658 1.7255617748238836 12.596310498727423 254 254 254 0.40488842843278555 56 702 80 876 34 943
16 -1.9393121174544323 -1.8905501867540462 10.13144306669817 104 71 54 0.40198960614899265 54 176 98 419 77 409
362 -1.6616223927966403 -1.4808783659626854 10.675114664723786 173 112 98 0.70074559680682269 17 667 5 418 91 336
105 -1.351883617931203 -3.374066141748302 10.285950716171255 114 83 54 0.24929455123888114 54 811 98 767
489 -1.7086854891456049 -2.0985898438363613 10.357810811597238 187 149 132 0.99144792016808836 56 229 80 512 91 562 18 538 44 738
361 -1.6521671822637198 -1.4922256666094098 10.703848299644976 173 112 98 1.4085744951784342 17 668 5 417 12 88 91 335 54 488
104 -1.7079018658005054 -3.3233131224597638 10.340126174304233 187 142 109 0.30338713377638055 54 810 98 688
488 -1.2397014325080253 1.0534114926341303 5.9363535038990936 135 133 132 0.034986398594723196 54 784 91 545
359 -1.3784198424651439 -1.8581669174492137 10.290368789545326 140 94 72 1.0024207844156636 51 1109 5 320 40 658
486 -1.5199491286323947 -1.0190378956255732 2.0823493646983913 0 0 0 0.042528772747202556 54 69 56 16
358 -0.5974510153491942 -1.017318720751587 11.09636179092008 200 156 131 0.49220540082277209 17 913 97 1603
101 -5.622001780567043 -6.9320506074917327 16.581308958622603 169 64 60 0.87451434036595854 54 797 98 672
485 -2.6993757337680426 -2.5483695527071188 10.837799960857502 107 82 69 1.3206088341916074 54 152 98 100 91 62
357 -0.46085186406407896 -1.8414870461597108 10.718523052134232 249 232 224 0.54092563092344814 17 761 97 1117 5 1863
100 -5.6442699132186949 -6.8598703747612433 16.052845974114909 210 208 211 0.15843894912929973 54 796 98 827
484 -1.5017906528410445 -1.5629595063861477 10.625538550773912 202 145 112 0.53716968047521418 19 895 17 765 45 1129 62 412 20 323
356 -1.7040475590649782 -1.7397247306924395 10.67244225387685 78 69 68 1.5069877288022604 98 772 17 833 51 1915 56 550 75 892 34 813 40 908 20 418
99 -5.6442699132186949 -6.8598703747612433 16.052845974114909 210 208 211 0.15843894912929973 54 795 98 828
483 -0.89984508949560493 -1.0534709805188267 10.259340042961584 254 185 154 1.223935350775071 12 443 20 514 51 2106 5 2692 26 443
348 -0.21266480075378391 -1.933783057981705 10.706020673415686 43 15 3 0.76111568610892788 56 70 51 1556 5 1287 97 1119 35 78 75 589 40 512 91 105 98 138
91 -1.5766369226619321 0.021455620153756065 10.845328535428372 162 121 89 0.15178034081193642 54 764 98 459
475 -0.52867340872616075 -0.63146318837163529 10.224283811553514 169 118 99 1.2599283050704302 12 415 45 1345 58 745
463 0.411729934710723 -2.5020590901271307 11.746307965704867 177 113 86 0.33106880161055441 97 1863 15 1235
450 -0.94999147725901556 1.4785368104650682 9.6208347360977147 38 36 39 0.89028574209094069 45 1497 20 582
449 -0.2369642887099736 -0.50430985268473927 10.486224553873669 154 96 74 1.7008133148383746 12 476 45 1464 15 1230 58 811
448 -1.6340730334811497 -0.46722882651476683 11.586709941074268 201 143 105 1.2102680781037465 45 1457 20 552 58 812
446 0.65792600209005858 -1.4784207449419795 11.648268881989875 160 96 61 0.64230820920865772 12 499 20 536
445 0.73197531150621487 -2.3353363995959198 12.313516266731984 102 59 44 0.027095468383240874 12 496 20 533
444 0.73197531150621487 -2.3353363995959198 12.313516266731984 102 59 44 0.027095468383240874 12 495 20 532
443 -0.8006303872686682 -0.077673065933798677 10.616254113561812 175 114 77 1.6786851509272303 45 1399 20 523 15 1195 12 454 26 375
442 -0.87479334308041157 -0.59361667912988414 10.633892893180269 230 157 122 0.67715869380134452 45 1433 20 517
439 -1.3254208927386424 -0.5454288659149803 10.521279596450068 173 109 71 1.349999753208883 45 1344 20 464 15 1104 58 695 18 378
438 -1.5206145913901716 -1.4272730465064996 10.741398071686138 246 186 150 0.79041214934598303 12 374 45 1392 20 456 26 190
341 -1.8552536148554635 -1.5677656177548076 10.700914838756059 232 174 150 0.29330444058724436 56 491 80 407 35 753 18 359
84 -0.080431074763476024 -2.1715013818324063 10.433290458861869 96 65 44 0.30531553226902858 54 741 98 698
340 -1.8177008697669739 -1.9818334046433799 10.410005472839234 116 75 47 1.1177794855486409 56 540 80 402 91 598 18 350 44 713
83 -0.23379235500427548 -2.1698032566381964 10.270751289284663 61 36 15 1.5753672801860035 54 740 98 771 56 537 17 959 34 734 40 903
339 0.37026212374272355 -1.9483936657038192 11.431745424295675 203 140 99 1.3077930847934858 20 567 12 513 80 777 91 661
82 -0.40552848514793799 -2.2243472230695445 10.25183105159268 196 156 131 0.52095086429470661 54 739 98 581 77 580
336 -0.052625599106037806 -1.8773177159561643 10.707202147338723 86 32 10 0.10329055694969354 62 632 12 332 20 380 45 1213
79 -1.0115431262552876 2.3161997376100243 10.593970479570247 238 238 238 0.46322535142883359 54 696 98 509
335 -0.44396434797600692 -1.0013852647302188 10.689868784314182 218 156 128 0.40303174924228591 19 954 12 287
78 -0.68792238078695356 1.9957116975467124 10.955867606216499 245 245 245 0.40281357738924362 54 694 98 637
334 0.73883494626986068 -0.42379732084518112 10.787246349846473 81 30 2 0.40044570920334244 62 208 12 136
77 -0.82176837387879431 1.6561007435404087 11.11682682285273 254 251 246 0.22635960127962962 54 692 98 501
333 0.89582846141401118 -1.7856639853917429 12.228783036376782 227 164 147 0.39540051218268052 62 414 12 93 40 187 20 239
76 -0.49963263745886632 0.40549096877510427 10.643677489714085 162 132 107 1.3655541535339162 54 679 98 480 62 586 77 660
332 -1.5937037728961321 -1.7735811241617356 10.700672745501711 68 43 29 1.0509006952979774 62 400 12 69 17 499 51 1124 5 1285
75 -1.361158097886265 0.091088858004727935 10.799467377156933 201 157 132 0.52635528340940485 54 666 98 225 77 274 6 697
324 -1.7090407664571687 -1.724798364841216 10.582666099467087 57 61 62 0.85944983719346946 19 1071 12 403 45 1330
67 -2.7947951686849359 -3.4897761687112969 10.854549814509754 31 17 3 1.2376925281081501 54 618 98 395
317 -1.0668860082555722 -0.47595041850658421 10.469567125253965 103 59 55 0.72728764910864341 54 237 77 230 17 249 19 644 62 181
60 -0.90853392696823931 1.6682603842869399 11.266764265489821 253 251 247 0.17401533211153036 54 579 98 500
316 -0.11645988502893931 -1.2869195443623007 10.765752869043963 224 169 146 0.85937768490563771 54 1077 98 1004 17 1078
314 0.41815768335650894 -2.2922433260057691 10.005280387116695 177 113 78 2.0879548295433099 98 953 17 1062 51 2141
313 -0.91375913722040003 -1.0509999611496263 10.232992906289445 236 176 165 1.8122223971629836 19 1128 17 1042 97 1826
312 -0.95583744572220208 -1.7263001378989007 10.317233586200572 226 174 153 0.77293251757160286 19 1124 17 1039 12 470 97 1822 5 2720 45 1451 51 2105 26 498
311 -0.90871748089365212 -0.8439812244694459 10.692223114842493 169 110 96 1.6269501762106118 19 1104 17 1015
310 -1.1268058622125781 -1.4952565511487781 10.342684670065625 197 123 86 1.3217459393703261 19 1125 17 1011 97 1718
309 0.09531212073980512 -2.1952587664062619 10.592312848463315 84 47 29 1.3918106549387235 19 1121 17 1003 12 469 97 1780 5 2611 51 2069 35 859 40 905 45 1424 58 789 18 540 26 436
308 -0.31675934434990854 -0.34796361510575585 11.152969917372937 223 176 153 1.7211758685219298 19 1083 17 976 62 701
307 -1.4914213085858061 -1.0945783991714735 10.832870691798112 226 172 144 0.88563716768508505 19 1076 17 907 45 1342 20 461
306 -0.62344644124047222 -1.0293240050588421 10.496013215410798 205 150 120 1.0410874524739253 19 1015 17 848
305 -0.59589067303851539 -1.794573598224783 10.688346510154981 168 95 70 0.39024327248977825 19 1010 17 834
303 2.0987258104283861 0.65397242995901694 10.549805666645492 245 235 236 0.52509669453197028 19 918 17 800
302 -1.1526916424481057 -0.95451775469652977 10.196867365691492 201 126 97 0.8217913439904686 19 953 17 774 45 1223
300 -2.0503572625617723 -1.9245632013564167 10.344583659327188 57 20 3 0.68386739308378308 54 815 62 625 17 759 45 1276
298 -1.0692265518162261 -0.52506067177942384 10.420747563314189 228 160 141 0.25552120673425333 19 643 17 534
297 -1.3204262655626051 -0.35707295101290532 10.539465038020587 129 55 34 1.0994039901456745 19 906 17 533 51 1192 56 121 90 120
296 -1.5445693691117608 -1.7266371532205482 10.68276861287935 215 190 177 0.75112481521532459 54 639 17 509 5 383 4 607
295 -1.8481747621767528 -1.7284424366414706 10.514854701779262 71 42 26 0.91637170463442918 19 290 17 507 51 1123
293 -0.39140983566241178 -1.6462184479817124 10.655639088338768 196 140 117 0.40330360318705544 19 307 17 224 45 333
292 -1.5939287659205281 -1.6193309980187671 10.582714572001255 234 188 175 1.0517096056926734 19 616 17 221 45 332
291 -0.13623259010038305 -1.9242696505968639 10.617681495653724 80 34 17 1.1446010590038285 19 609 54 473 17 212 51 1130
290 -0.46503435869748988 -1.8838974643170989 10.788901799961559 198 194 191 0.65286443384119919 19 275 17 208 51 345
289 -0.23844522466304596 0.53725083479329927 11.232833483133753 39 30 22 1.9230878297257734 62 806 54 1065 98 997 12 537 80 858 34 927 40 971 20 580
288 -1.6510549961478216 1.6539540811043856 11.685309312445517 230 238 240 1.4051968405031954 62 813 19 1179 80 869
287 -1.7393191512714872 -1.0572415428032211 10.341944334893409 235 179 152 1.286989066209236 54 1075 19 1176
277 -0.34157312372227017 -0.41758823371884274 11.004519637969501 222 168 147 1.2713902826471379 62 189 19 652 17 538
20 -1.7861400119151312 -1.6782787129097418 10.843371062211197 109 94 87 0.91677306224748656 54 194 98 144
272 -0.70351434067197627 2.1706421158632212 11.632861141263128 69 74 92 2.2069253090851122 62 809 80 842 40 968
15 0.18832735772071652 -2.2436885935726907 10.592862776071923 83 44 18 0.70995118965391379 54 170 98 123 77 119
120 -0.012208076143828274 -0.34851825619636584 10.886431926688218 207 171 143 1.482058462144775 54 837 98 805
115 -1.2858649392017645 -1.0882866868763885 10.474930110488772 169 114 83 1.0713883218808913 54 827 98 787 34 694
114 -0.51238814527772936 -1.3744194501774081 10.576208288401228 181 130 99 1.1195777296657206 54 826 98 786 62 724 77 825 56 421 34 762 40 818
112 -0.49927991813187234 -1.6519239542481996 10.65136519928997 178 142 116 1.1905869154749296 54 823 98 708 56 420 19 1011 17 838 97 1441 5 2270 51 1989 35 616 40 672 91 522 44 628
109 -1.3189199202599504 -1.6325716396337027 10.594531122699777 213 182 156 0.92333703598635075 54 819 98 705 62 638 56 418 19 1007 17 837 12 329 51 1919 80 410 97 1440 75 837 45 1216 20 378 15 959 91 518 4 763 44 679
107 -1.9832924988045981 -1.6738762968833103 10.660364072936927 82 37 14 1.1348247726304794 54 817 98 778 56 415 19 1006 17 836 12 368 51 1914 45 1280 20 417 4 824
81 -1.9522478098456149 -3.6220638238080212 10.335174337190793 40 26 15 0.15913165786747202 54 720 98 685
