# 3D point list with one line of data per point:
#   POINT3D_ID, X, Y, Z, R, G, B, ERROR, TRACK[] as (IMAGE_ID, POINT2D_IDX)
# Number of points: 429, mean track length: 2.6020202020202019
223 -6.2392139128480659 3.8425317213012753 16.724155457523327 97 69 47 0.010647961405363986 82 2540 8 802
220 -4.9707058314568577 3.8355079854353122 17.194790960954943 36 22 19 0.080123487230773921 82 2537 8 796
219 -6.0472544852971417 3.8277910544935136 16.87672689052928 139 94 61 0.091000974978570973 82 2536 8 803
218 -4.6406457956030396 3.2972088793930392 17.234657359380193 129 103 88 0.35745297022104983 82 2531 8 574
217 1.8153474731844284 2.9187409932014381 16.904905614585562 33 18 13 0.06717706871941366 82 2529 8 794
216 -3.4785864215985169 3.2270052792931678 17.421124898845637 229 182 164 0.40562277340044128 82 2528 8 559
215 -5.879164621221328 3.0977053649731467 16.746397097204522 204 168 135 0.015103044279961363 82 2527 8 789
214 -5.879164621221328 3.0977053649731467 16.746397097204522 204 168 135 0.015103044279961363 82 2526 8 788
213 1.587132381364835 2.6389704095110615 16.960675840071509 55 40 33 0.053431943575134602 82 2525 8 564
212 -5.8886909151239184 2.6876790122132328 16.636496338694602 187 148 115 0.032677571727058069 82 2524 8 787
211 -5.7999411601942326 2.5259682942665824 16.590177568469745 137 97 59 0.0069294729110318436 82 2523 8 783
210 0.53855185515170478 1.9991563178146921 17.005041117555656 201 165 149 0.21808792954932532 82 2518 8 543
209 -4.8250034708234999 2.0571529564810533 16.753069888812238 158 112 81 0.027329934888196669 82 2517 8 548
208 2.3381503825626395 1.5865499280889019 16.268184720105829 89 57 34 0.069595397465088041 82 2514 8 781
207 2.374170844463884 1.2853172384514102 16.068546806115663 104 79 59 0.020178316543276547 82 2512 8 779
206 2.2964905248878509 1.3825030742398223 16.17218670504452 98 68 44 0.037804491440204209 82 2511 8 539
205 2.1719928635390175 1.391875375830905 16.227084826213179 174 140 113 0.20162909024243858 82 2509 8 778
204 1.2920220661341815 1.1601443026257781 16.431972634453444 146 112 85 0.061742227877169001 82 2508 8 538
203 -0.93298813434372285 0.90401789223060647 16.790347708874549 13 15 16 0.53515730982178489 82 2501 8 774 43 2446 5 1117
202 -1.0983854538081494 0.87422237970641636 16.729047302068746 15 11 10 0.32173175507233132 82 2500 8 763 2 1313 70 836
201 -2.5861224004450172 1.120398136032275 16.670801627166423 221 195 192 0.82149675183207371 82 2499 8 772 6 1259 54 1291 39 61
200 -2.9542667972071079 1.0524893316406978 16.517767033003114 221 230 229 1.2618739060912301 82 2497 8 770 6 1047 54 1021 70 839 43 1919 36 710 26 408 20 748 76 831 42 913
199 -3.6026436236600468 1.0880800476102903 16.647910450721515 53 31 33 0.014459874488495679 82 2496 8 769
198 2.0939951307084086 0.7660981217961943 16.003312546691642 93 61 40 0.097445380176617108 82 2495 8 768
197 1.4308694395245836 0.63777723278757692 16.155908337670592 18 15 6 0.83951138673131931 82 2494 8 764
196 0.72819641677025504 0.80382208808096378 16.540637096807298 200 168 147 0.198665709499867 82 2493 8 529
195 -4.4301378031104628 0.56797095466362379 16.281505002573347 55 24 5 0.08568921185794906 82 2492 8 528
194 -5.6183000048937748 0.67455889681649939 15.937021188391475 98 64 47 0.015931753075092384 82 2491 8 761
193 0.86807969184709044 0.18830787874202545 16.156823809805051 66 51 46 1.0186074782445447 82 2490 8 523
192 -3.6027683247976623 0.3509801143175944 16.3420918306795 105 72 66 0.82344867365305374 82 2489 8 762 6 1033 16 757 36 1020 5 995
191 1.6479484952049512 -0.074653360966345159 15.755862435715979 88 60 38 0.61029883462368995 82 2486 8 525
190 -4.1754220002189264 0.10246950332200289 16.146645128532604 94 60 40 0.27277961834514752 82 2485 8 521
189 -5.0387509731950173 0.091208047701942283 15.858015840102395 111 73 37 0.39932953258440029 82 2484 8 759
188 -4.9580160545523917 -0.02271326977972761 15.810919522760553 109 74 42 0.0073838372449331838 82 2483 8 758
187 1.5722499522896256 -0.21578536475676391 15.692580042895102 60 39 22 0.050002905199745665 82 2482 8 518
186 -3.8027609785240846 -0.49724129059853028 15.866096243593482 198 147 104 0.0537167002149277 82 2481 8 757
185 0.77952896957103457 -0.73605436337533325 15.680464896410548 48 35 27 0.47717249086319902 82 2479 8 513
184 -1.5950905097749257 -1.4965814584553936 15.505219186664574 163 134 126 0.06170302897284087 82 2478 8 503
183 -2.3423659070353784 -1.4771568355580387 15.438034835525475 121 77 64 0.069072748552221841 82 2477 8 752
182 -4.4645083165894555 -1.2200287315003677 15.224923382071289 219 186 150 0.034023822029725058 82 2476 8 751
181 -4.4645083165894555 -1.2200287315003677 15.224923382071289 219 186 150 0.034023822029725058 82 2475 8 750
180 0.70674993952863718 -1.524587633891789 15.105048459694299 34 19 8 0.028808593674674695 82 2474 8 504
179 0.67679036714629748 -1.4435992149680468 15.172016481643935 87 64 44 0.33752724429558978 82 2473 8 505
178 0.6378365470946652 -1.654005178386571 14.993707466272381 63 43 30 0.32484944445541769 82 2472 8 500
177 -4.5861763838407814 -1.490038021700729 14.999281837769782 237 212 192 0.14930091278938129 82 2471 8 749
176 0.25501341526821236 -1.954746397021119 14.867770902955494 91 71 52 0.20772628891125752 82 2468 8 499
175 -0.31682758914372777 -2.0957817351888566 14.902577871823752 92 70 56 0.013495011416843526 82 2467 8 492
174 -3.0238507035295408 -2.0061877261673251 15.003507049374271 12 10 11 0.024955949675527816 82 2465 8 488
173 -3.1560303495768927 -2.0336701823460346 14.936202499723654 173 144 130 0.14865190464583397 82 2464 8 740
172 -0.30577739787845337 -2.3682334577315634 14.691664871637885 71 53 39 0.11721836696111368 82 2462 8 739
171 -0.7187174624213325 -2.3291211327911499 14.759580164140788 56 47 41 0.089939254806111868 82 2461 8 491
170 -0.7187174624213325 -2.3291211327911499 14.759580164140788 56 47 41 0.089939254806111868 82 2460 8 490
169 -2.3719350488936315 -2.3218487341290435 14.7943374199736 130 105 90 0.15216731719924087 82 2458 8 742
168 -1.3441196169265677 -2.9060477886586473 14.318265052004261 10 7 1 0.12498304479025518 82 2457 8 736
167 -1.5817676702776311 -2.943659308996375 14.296119797189284 14 10 1 0.096965649747860164 82 2456 8 734
166 -1.9035946446584071 -2.8887346530364346 14.349218380620547 214 201 195 0.065833749896050966 82 2455 8 733
165 -2.1425582186920042 -2.9006368734607042 14.285562014524684 22 16 2 0.033446048536866398 82 2453 8 483
164 -5.6714179623301328 5.5433269884680483 17.16228673723483 75 47 26 0.006220932261529824 82 2449 8 239
163 1.1338103315981629 5.3408756750075952 17.419670689338663 85 45 19 0.090595498740814115 82 2448 8 253
162 -6.2321587106810528 5.0148292087907764 16.950864551221954 232 206 171 0.018339997950263837 82 2446 8 605
161 -5.7986114487282681 4.6893261687275434 17.023605170658389 90 49 21 0.082290706242777845 82 2444 8 217
160 -5.9222995849349314 4.6941178823509659 16.920999599690873 248 214 180 0.066990930736527954 82 2443 8 218
159 -6.4748297819963474 4.8253191624732512 16.711988816914051 180 127 84 0.031135364268628819 82 2442 8 595
158 0.73839029941454992 4.532965083139989 17.582164072193557 81 58 42 0.042465559292731533 82 2441 8 227
157 -3.7032246107395705 4.761943436343822 18.499541678678021 135 108 90 0.84875008478110026 82 2438 8 591 70 544
156 -4.6881578936399295 4.5138893971272953 17.473795312038746 87 60 41 0.19112913340840545 82 2437 8 596
155 2.5000047269610044 4.1402756588452316 16.853686608812563 78 51 30 0.090782363440122749 82 2435 8 214
154 2.0814859858883157 4.1156506278097309 17.03665227053834 64 42 28 0.040814483306098701 82 2433 8 593
153 0.75207483121326879 4.2854725899525361 17.626504644335323 90 59 39 0.23678799409923118 82 2432 8 210
151 -4.5540489392094061 4.2414507594455397 17.379079253014524 71 39 23 0.21171091349291737 82 2428 8 590
150 -6.5398536964936493 3.95215884642404 16.553708945239496 30 22 11 0.13269594940956222 82 2426 8 199
149 1.6618307044149603 3.6287917528687981 17.087792930659383 97 79 65 0.03234936091989167 82 2425 8 194
148 0.55267294911602571 3.6646632458620569 17.421540095094748 66 53 47 0.050050336227523681 82 2424 8 191
146 -5.104615314123417 3.7168992942912986 17.097056450411952 99 78 61 0.011970121298765478 82 2421 8 573
145 -5.631540087760099 3.7947115110015943 17.005011573348416 111 71 42 0.17447566670767253 82 2420 8 585
144 -6.1154260580176327 3.5684609040184854 16.745208429408436 141 91 58 0.0017417487139564885 82 2419 8 572
143 -6.3086694808683452 3.6768906899812328 16.643438093110131 204 166 138 0.12392505624623935 82 2418 8 570
142 -3.6101254669791185 3.4623031610306794 17.666556513450615 199 144 122 0.38080551555554121 82 2414 8 576
141 -6.130902391641774 3.2520066080254009 16.650126279539897 223 194 163 0.013879949092811459 82 2411 8 569
140 -6.130902391641774 3.2520066080254009 16.650126279539897 223 194 163 0.013879949092811459 82 2410 8 568
139 -6.0004035666181581 3.0043474974465747 16.735554976816125 143 101 61 0.05109967570060045 82 2407 8 554
138 0.72692649879635662 2.6568451947985738 17.139872030870539 83 54 36 0.048272190196554002 82 2405 8 174
137 0.49695943664454312 2.7017239461670051 17.245955259285019 251 245 245 0.072183555953816383 82 2404 8 173
136 -4.1250610566744141 2.7258039178141567 17.338205823729318 139 109 102 0.39201253852606444 82 2401 8 169
135 -4.6578516220310124 2.6238286181700445 17.195910896147456 99 64 44 0.10221701995854357 82 2400 8 145
134 -4.8541472943978468 2.581978713091408 17.00296731582846 110 65 32 0.02353499756140999 82 2399 8 143
133 1.5585977994134586 2.3382384590078535 16.86988074086516 69 55 46 0.048706817760196121 82 2397 8 158
132 -4.1827842722956659 2.4404797953418229 17.195256573205281 93 91 84 0.17213126961473765 82 2392 8 147
131 -4.191066702265136 2.2994551866168536 17.080005246042024 100 92 84 0.11129304763206826 82 2391 8 551
130 -4.3987836024125997 2.3650803437255985 17.027696821344385 22 20 12 0.054470936572759608 82 2390 8 552
129 -4.9406468476845262 2.2676589296488232 16.810888004524049 201 158 126 0.037305554635661348 82 2389 8 550
128 -6.0181924540897338 2.400976889350559 16.468896365056917 172 131 109 0.025659998110636892 82 2388 8 142
59 0.81542478382759498 2.9026070394722674 17.148977198461647 68 39 21 0.038010049834517265 82 2198 8 175
58 -4.3494692665298862 3.1277202015794723 17.411280043033106 20 10 8 0.072437930741064332 82 2195 8 557
57 -4.6724761667786083 3.0648544207438388 17.18218480913108 135 116 102 0.10272603595605001 82 2194 8 168
56 -4.6724761667786083 3.0648544207438388 17.18218480913108 135 116 102 0.10272603595605001 82 2193 8 167
55 -4.6696669592762596 2.8887764539423677 17.057881350302058 143 122 106 0.11747180435037749 82 2191 8 164
54 -4.762614526197444 2.9867836720917982 17.107565976454143 82 53 36 0.076419261959499746 82 2190 8 166
53 -4.9356806269732463 2.8903450965738897 17.101248481858832 110 55 26 0.14988964667704274 82 2187 8 162
52 -5.4976928910570457 2.9243452951670252 16.880497139294626 152 103 62 0.044387763086563337 82 2185 8 161
51 1.7607859531069094 2.5043763406710142 16.806112705975629 37 20 10 0.016720134435867864 82 2180 8 159
50 0.51984878853776462 2.1817925819627204 17.05964277928631 237 238 233 0.055792262279933613 82 2164 8 152
49 0.5029683389442533 2.3782827538157867 17.157613748438056 228 240 238 0.046322649676242597 82 2162 8 153
48 0.35839912226484094 2.2410817697776295 17.158044045410712 182 142 128 0.054720410046434798 82 2161 8 151
47 -4.8399818190516513 1.8780445763146851 16.753272021807874 89 52 18 0.035181403089174709 82 2146 8 133
46 2.1707198838642001 1.7338610895963904 16.388500729063612 121 89 66 0.092080485003177281 82 2143 8 140
45 2.0015488169685849 1.1923439782713527 16.106967279518429 86 58 36 1.0627916868853085 82 2134 8 128
44 0.62724765382530767 1.3901011287985825 16.766378231421204 226 189 170 0.010201461679762849 82 2131 8 127
43 -3.4715798194101701 1.3112752672505139 16.609622205955198 176 127 123 0.055931714036699699 82 2123 8 113
42 -1.350474605204429 1.1083739609047936 16.846302773387926 198 191 198 0.90942950533297784 82 2118 8 119 6 1049 54 1024 70 495 20 870 16 652 43 1231 36 1031 26 462 76 1316 42 1047 93 595 39 270
41 -1.3061041391318156 0.83085002213710368 16.86121155634309 129 118 117 1.3286139427476915 82 2117 8 94 6 1048 2 1134
40 -3.2749228406389466 0.96740042610297305 16.693502462408549 4 9 5 0.0049377802714164814 82 2114 8 111
39 -3.2749228406389466 0.96740042610297305 16.693502462408549 4 9 5 0.0049377802714164814 82 2113 8 110
38 -3.8328292834440827 0.93068873936206775 16.475546035972588 50 36 38 0.022173360747651558 82 2112 8 109
37 -5.4803555374583395 0.84642570097514425 16.076967390889859 160 118 80 0.039041802323693121 82 2109 8 86
36 1.9587663999149172 0.70906732584429577 16.009365429461567 176 139 110 0.041023267006929466 82 2108 8 102
35 0.68474998082220973 0.55149840509184755 16.345028256396738 14 2 0 0.13385477069726587 82 2104 8 96
34 -3.6776825325271876 0.29692747674276959 16.323883920347875 203 169 160 0.31247836363467929 82 2095 8 81
33 -3.8210558024210992 0.37920772782647649 16.374066538700486 150 121 117 0.083399631638132257 82 2094 8 87
32 0.96661891589946758 0.074179699603414681 16.045836464048623 22 15 7 0.30158226304089597 82 2087 8 83
31 0.96661891589946758 0.074179699603414681 16.045836464048623 22 15 7 0.30158226304089597 82 2086 8 82
30 -4.2860971697658146 -0.14191593501906186 15.953783661365515 46 24 11 0.20975092542059953 82 2079 8 79
13 -0.95571873268157581 -2.5521755710812593 14.613256791483575 50 35 34 0.046732903323585845 82 2012 8 6
12 -1.5693478148437749 -2.7878153779342916 14.429106506051887 109 90 83 0.1236803864864138 82 2002 8 0
11 1.0095389539703068 5.2894684927957227 17.390718086679591 133 107 90 0.28791832970352216 82 1961 8 252
10 -3.1805768626700774 4.5630997239236333 17.203250700392843 151 107 90 1.5353788930902248 82 1905 8 221 70 196
9 0.72417729032793454 2.429622624627461 17.15889235591186 68 49 39 0.0503398031273685 82 1749 8 154
8 -5.1196282046440791 1.5184397598262618 16.45858457121097 106 74 51 0.33058702888155284 82 1705 8 132
7 -2.2403628946500396 0.82309442287052148 12.257472690011587 188 160 158 1.0245779035209222 82 1658 8 117
6 0.98081761221111796 0.74759494139593308 16.314748119179605 143 120 100 0.26365719842015345 82 1640 8 98
5 -0.35677661876344324 0.5358979806740175 16.48578227946016 134 95 83 0.265396147039687 82 1639 8 95
4 -4.6591918590847161 -0.59252761751926841 15.493823781459191 91 47 12 0.42559545869615512 82 1561 8 63
3 0.20978164499223531 -0.88626207076509866 15.628718129268547 29 11 1 0.081808690703546127 82 1550 8 56
2 -0.27261640802185405 -1.1221247829187708 15.539028544175496 38 25 16 0.046809520116869958 82 1537 8 52
1 0.28732532581571002 1.1428164353762873 16.464972962490087 154 126 116 0.56747194530949341 82 766 8 125
14 -0.95571873268157581 -2.5521755710812593 14.613256791483575 50 35 34 0.046732903323585845 82 2013 8 7
15 -4.1630344804804604 -1.9705524827060972 14.775382675951157 51 43 45 0.077849973054530813 82 2022 8 9
16 -1.0813551701684767 -2.162182221583075 14.961871017832161 62 48 39 0.059399585072525199 82 2026 8 13
17 -0.76127414791989068 -2.1837207791357898 14.914785655220635 65 53 46 0.30776794663853374 82 2027 8 14
18 0.11545884732490452 -1.996040335807469 14.922167714700324 46 26 12 0.20276206756759202 82 2029 8 18
19 0.17048268004933087 -1.830479614088423 15.017361008596392 91 69 50 0.18071646940761454 82 2035 8 24
20 -0.91362817172600008 -1.54664148653228 15.376396091081558 56 46 30 0.37252798290738898 82 2038 8 38
21 -3.7034695023444688 -1.3767734014284538 15.335858071340159 191 169 158 0.12806829850781998 82 2044 8 32
22 -4.3728468494978552 -0.98108080816845622 15.423313971894624 189 159 130 0.092752778278801754 82 2052 8 45
23 -3.6035408485078659 -1.0163178023076596 15.585412481183843 122 86 64 0.075604837137044661 82 2056 8 49
24 -0.1550245315219802 -0.77056024259139133 15.771557793984147 86 62 52 0.45139654781939498 82 2062 8 55
25 0.95278270399897558 -0.54167206345402075 15.76437570504825 99 83 67 1.2477086878974475 82 2070 8 70
26 1.5123580632310878 -0.58981126128659178 15.49987694386107 115 84 63 0.044909858024870339 82 2072 8 74
27 -5.1957925430121348 -0.33621825449818304 15.515237699556149 84 66 36 0.16954691192110222 82 2075 8 59
28 -5.1957925430121348 -0.33621825449818304 15.515237699556149 84 66 36 0.16954691192110222 82 2076 8 60
29 -4.3197549259105079 -0.33940015284513786 15.914105722297236 72 51 32 0.19514559132810808 82 2078 8 65
60 -4.6096424033073875 3.4743121047896235 17.302129035374179 119 93 79 0.07085239400933438 82 2201 8 180
61 -4.6656586963942983 3.599007567124934 17.244726171033907 57 38 24 0.25330928113260509 82 2211 8 181
62 0.98551923270138631 3.7499999005536186 17.294261468975499 71 55 42 0.11792183937603853 82 2215 8 192
63 -5.4593751590999995 3.983490250276799 17.218193546593803 119 79 44 0.24856042281371762 82 2220 8 202
64 -3.824209250632566 4.1413293061506486 17.669404917963114 19 5 0 0.071855193945737 82 2224 8 204
65 1.1472929821240871 4.2593574063190562 17.36649568583157 109 81 59 0.32611655052853428 82 2232 8 212
66 -4.8252066242162117 4.4356860176776083 17.513459280717161 37 20 10 0.056611833197509794 82 2240 8 203
67 -4.6658280348974941 4.8211863253579086 17.399651355061891 121 90 67 0.30037986440558984 82 2252 8 220
68 -0.22530869292687214 5.4110759485770474 17.860400493517638 143 117 101 0.10202295460702107 82 2260 8 248
69 -6.606536760046791 5.3066415510147102 16.6418657631847 215 184 163 0.083052431727955178 82 2269 8 235
70 -6.606536760046791 5.3066415510147102 16.6418657631847 215 184 163 0.083052431727955178 82 2270 8 236
71 -5.5075551974058534 5.3864726888377179 17.01913134889951 92 66 44 0.051570179655529479 82 2275 8 238
72 -0.4169841729806717 5.7141092734559287 17.599602572125882 204 172 151 0.21481153076229503 82 2279 8 607
73 1.4819383834786726 5.7423775404612076 17.316625855359728 83 64 48 0.10631878409079112 82 2287 8 274
74 -1.837397442499227 -2.6734951680277295 14.518347731333453 93 66 47 0.0034660486774329962 82 2289 8 484
75 -2.4865717964230662 -2.5018447094636738 14.645285047233065 88 60 39 0.16156577329498284 82 2291 8 3
76 -2.1578675005539747 -2.6511824912094011 14.570712310082099 105 70 50 0.15341099084620941 82 2292 8 4
77 -0.83045888371299037 -2.5417860972736608 14.526081490208064 75 62 56 0.22043501849155014 82 2294 8 486
78 -2.7107857007343483 -2.2281179084650398 14.837188352509584 129 104 90 0.053212312832193312 82 2296 8 489
79 -3.5572384331469968 -2.1237859365529319 14.802382887428269 253 221 192 0.41573094984379022 82 2300 8 10
80 -0.041287621499000962 -2.1007331651950243 14.836331368625004 50 31 16 0.35554111074663952 82 2302 8 493
81 0.3490962541995889 -1.9567725047621465 14.827163070706959 14 11 2 0.086316563895928761 82 2303 8 19
82 -2.9730435631810996 -1.836521044412599 15.137318850840471 103 90 73 0.093951806517366648 82 2305 8 496
83 -3.8027115618987315 -1.5342841653248551 15.184415425169632 247 223 201 0.067433314281508366 82 2307 8 501
84 -2.4235710481759196 -1.5536183317698127 15.385303528249546 134 117 101 0.031349681080064584 82 2308 8 35
85 -0.40003221944537648 -1.5073470498727122 15.308000532569288 81 72 63 0.048406741595983752 82 2310 8 40
86 0.10207413168475098 -1.5439553469636191 15.280955007357578 25 18 12 0.1531995541858871 82 2311 8 41
87 -3.9110603346810708 -1.4066569797177748 15.263038174693554 234 208 185 0.12867330920665399 82 2316 8 502
88 -3.5346710880341567 -1.4248156854584546 15.306404038396696 170 145 115 0.062322521249700266 82 2317 8 33
89 0.39005248049721564 -1.3902347299333051 15.318335670942629 19 10 3 0.11419327940258023 82 2320 8 42
90 -4.6170534048349063 -1.0268607955638422 15.278923544507141 229 195 160 0.043625338422584349 82 2321 8 44
91 -4.1534326180298375 -1.042162333678927 15.450949667860206 209 165 124 0.093676956907261993 82 2322 8 509
92 -3.8908400100379832 -1.1462165091914973 15.439564239456725 195 171 150 0.10688096891373489 82 2324 8 30
93 -3.8908400100379832 -1.1462165091914973 15.439564239456725 195 171 150 0.10688096891373489 82 2325 8 31
94 -3.0737380508141006 -1.1303616858758851 15.556021827471886 164 127 118 0.1014937337281871 82 2326 8 510
95 1.0439118442757067 -1.1033497853624059 15.293456238964932 90 64 47 0.1710492398486935 82 2328 8 506
96 -4.2270755601953329 -0.92916693398726535 15.48814422811947 211 174 130 0.045228898817030919 82 2329 8 47
97 -4.0621109610517205 -0.71524262854235254 15.674736318789739 35 14 2 0.079464813760273825 82 2331 8 48
98 -4.766498508952691 -0.60528064084969158 15.540683726424371 214 172 123 0.10364454908300612 82 2332 8 515
99 -4.8294129948272246 -0.50526499223856569 15.554689480701612 213 170 127 0.05032443195007745 82 2333 8 516
100 1.1291901950452576 -0.55267356498419495 15.591037964618314 128 110 98 0.062418681349837482 82 2335 8 68
101 -4.8893378407130204 -0.34943240049196489 15.563385465377175 213 171 120 0.25876871948639202 82 2336 8 62
102 0.83578919192010825 -0.26121497324847043 15.82171094277143 67 53 44 0.21830426066381267 82 2338 8 72
103 0.83578919192010825 -0.26121497324847043 15.82171094277143 67 53 44 0.21830426066381267 82 2339 8 73
104 1.4923663050264924 -0.14261663920431328 15.743765652070129 145 119 96 0.13845406619263748 82 2340 8 524
105 1.349553412679376 0.039480729953697988 15.900377449064459 50 32 18 0.8476029116613748 82 2343 8 84
106 -4.7760592336460492 0.35352093445663868 16.052843096053525 84 41 9 0.1285636360466248 82 2345 8 527
107 1.0265075956022784 0.42584089653103513 16.288848042992846 93 77 64 0.90247474971174779 82 2347 8 97
108 1.5511841354928118 0.43385665658359546 16.010149431533254 61 35 22 0.29361878436663952 82 2348 8 100
109 2.3487534809771926 0.40802331424938304 15.708139641345138 33 31 26 0.1777993879560146 82 2351 8 531
110 -3.014536088903033 0.80042024076182439 16.676174737551111 139 123 123 0.0092006974256495146 82 2352 8 91
111 -2.8265716758706954 0.75133076369346175 16.687043367809377 181 143 140 0.058646615786362329 82 2353 8 92
112 -2.8265716758706954 0.75133076369346175 16.687043367809377 181 143 140 0.058646615786362329 82 2354 8 93
388 -0.75844981056722216 2.1378035927042509 15.963007734144812 254 215 205 0.070156829834274695 82 2798 8 1273
389 -1.7750572748559506 -0.52056387248096081 16.079302656864229 250 230 229 0.33721745975901829 82 2799 8 1277
390 -1.6682778896465302 0.68153533354516327 17.005649461319809 149 74 35 1.2674417340765078 82 1635 6 114 70 77 16 112
391 -2.7124843839928201 1.0266945737859734 16.556689064314924 184 121 90 0.087731541521268719 82 1659 6 138 54 168
392 -1.5894345921332695 1.1793747375831913 16.853574214633479 134 64 38 0.69361872443934836 82 1681 6 139 54 170 42 141
393 -1.5684541831321037 1.1688520534557352 16.803967041109495 134 64 38 0.22088259088963269 82 1682 6 140 54 169 5 156
394 -1.4498608102235389 0.96691906641166803 16.846971583855478 172 115 81 0.44296857351741642 82 701 6 141 54 702
395 -1.440331730670521 1.2608565707491775 16.592332210277647 208 152 119 1.153334365046409 82 2373 6 155 54 712
396 -1.318324431293987 1.3006749075783608 16.832494961226146 204 135 104 0.54863106153387975 82 1683 6 156 70 496
397 -0.69589066530664234 1.3210889435623321 16.678991457457666 155 97 72 0.42788795253662965 82 1686 6 159 54 729
398 -2.5942257423241428 3.3124841649974206 16.054729116077258 252 113 106 1.1247850976432501 8 185 82 2423 6 216 20 980
399 -1.1944105756089345 3.3085906158613532 16.60271239201283 236 160 137 0.92200490408290925 82 2204 6 234 42 739
400 -2.7186334882872401 1.1101083722247473 16.557707343630682 95 31 4 0.383074848737678 82 2116 6 725 54 1022
401 -2.7250365187121988 1.1365066078757096 16.63466194460927 95 31 4 0.83087381807786842 82 2115 6 726 54 1023 2 1241 70 841 16 647 43 1228 20 749 36 164 93 588
402 -2.7785946861016169 1.2182970207790844 16.691555110102094 206 142 114 0.88310523752703241 82 2128 6 727 54 709
403 0.57401414324258826 2.3559766450969954 17.068839549428414 0 0 0 0.14846179678607707 8 553 82 2165
404 -1.9449034670183212 2.5840374958472645 16.893271060368303 63 13 4 1.5486263323763581 82 2176 6 1065
405 -1.2926157381933854 3.1703729520711064 16.781296185195679 237 164 132 0.66682753594418853 8 579 6 1088 2 1174 70 527 20 571 43 501 10 1416 76 1160
406 -1.7299476859255667 3.7033350116984995 16.271941826038269 217 148 107 1.0216136051084808 8 205 82 2429 6 1094
407 -2.5749958978487024 0.89991570090664375 16.794683569761368 175 109 67 1.7572747746367658 82 2498 6 1258 54 1287 42 1165
408 -1.6900899901236117 3.4844210486934637 16.687290032001233 243 104 102 0.92197272377186934 8 798 82 2538 6 1299 2 1368 70 860 16 784 42 1196
409 -1.5659589736858857 3.5617272234740938 16.635849175083852 200 56 54 0.52889924419127377 8 799 82 2539 6 1300
410 -1.5193520799054432 1.1331743008903006 16.853290920668112 131 59 34 0.15334554202108144 8 921 6 1405 54 1363
411 -2.2702477116333051 3.5092836917107366 16.420788925893689 250 126 115 0.88331895697941121 8 938 82 2674 6 1418 2 1396 42 1194 39 497
412 -1.3076259604064442 2.5848014174381757 16.958351198055794 228 165 128 0.58590639491479013 8 928 82 2668 6 1494 20 1035 16 844 5 1133
413 -2.7335045588314228 0.53416223908987814 16.161565128452509 142 77 45 0.74778744115506313 8 1016 2 1411
414 -1.4958067707044729 3.3553221100933066 16.812872081037799 189 43 39 0.63608828221520286 8 1137 82 2751 6 1622 42 1405 39 682
415 -1.1506843767386523 3.5351927492342381 16.863888825712156 225 190 152 0.78490384596711493 8 1032 6 1623 54 1466
416 -1.6456269997258097 2.8932718982900809 16.720144430497779 235 193 169 1.335911758491108 8 1167 6 1661 2 1445 20 1155 76 1766
417 -1.7207099602998528 3.5020632649973851 17.097240627267141 196 34 33 0.53385812935707888 82 2780 6 1683
418 -3.1268311462109266 1.0282837788051462 16.725252223830825 103 96 85 0.67444231482378081 82 1653 2 691 16 133
419 -1.8827213723317024 2.6459975956189612 16.87719101169813 217 165 133 0.6671461400393347 82 923 2 1032 76 300
420 -3.3810658065013914 0.84552352356012073 16.18461788604316 4 4 2 0.80707345425467159 6 1046 2 1237
422 -0.55748009921642627 0.67326541180018717 16.706004630777031 202 150 113 0.42602616579558089 82 2708 2 1413 70 1048 16 943 43 3134
423 -2.6125484412931503 2.0924362852791027 16.656822043293442 210 172 128 1.2274245027067827 82 2714 2 1417 8 1086 20 1030 16 947 43 3278 36 1497 39 557
424 -2.1497540157673254 2.2895060385888502 17.961804048036871 195 146 105 0.0936658245346223 6 1489 2 1418
425 -2.1497540157673254 2.2895060385888502 17.961804048036871 195 146 105 0.0936658245346223 6 1488 2 1419
426 -2.5479160950765083 2.5800651567701043 16.755173568306127 162 104 64 0.81961353295496198 82 2665 2 1421 8 1024 20 972 76 1633 42 1344
428 -3.5126212292643144 0.87881264410624571 16.578520610369296 17 14 9 0.15161706730425994 82 691 70 76
429 -3.3100362788872735 1.0789848705139036 16.569205798743553 91 81 72 0.94100702067295072 2 988 70 94 10 205
430 -2.9926403640040475 1.1451609392897204 16.861138287826105 122 84 74 0.19585451143385835 82 1656 70 97 16 137
431 -2.9006720413246359 1.136013448477033 16.794328971440837 106 63 54 0.40263723899120568 82 1657 70 98
432 -1.1210742326379237 0.62976771717017344 17.402353066253692 170 133 120 0.45829988954016626 82 2101 70 697 43 1201 42 899
433 -1.8389733893758025 1.0605995799327048 16.939916955603202 149 99 74 1.2853514240331283 2 1309 70 842 20 868 16 760 36 1235 10 1382
434 -1.7324698618884897 2.6018448830520153 16.843025439436676 184 128 109 0.5996757532939726 2 1326 70 850 16 773 43 1974 10 1413 76 1324
435 -1.294255197593525 3.2768846228504747 16.719923605785663 124 63 45 0.54283690345190139 2 1334 8 581 70 861 76 1445
436 -1.5465900974352951 0.91870996229999558 16.700162813376636 175 143 130 2.0807248080031271 82 2596 70 941 20 965 43 2868 36 1363 5 1202
437 -1.5398055435611371 2.5988632293223586 16.862325586729526 245 200 177 1.2752296048647034 82 2667 70 951 8 1028 16 904 36 1243 26 469 10 1605 76 1539 59 816 93 744 39 562
438 -1.4006359378104314 0.26246986116185406 17.233447782173073 242 197 176 1.031616140292597 2 1430 8 1128 70 1093 26 595 5 1316 59 851
439 -0.96317050147017913 3.416453469586135 16.72757640777359 241 191 164 1.4241458942720708 2 1440 70 1102 20 1128 43 3290 36 1535 10 1939
441 0.77959321968498363 1.6503735464999294 17.322018697942585 167 112 84 0.58258448725680123 82 1709 20 141 16 485 26 130
443 -1.7733287720355679 2.6215324820933557 16.824066090134604 180 110 77 0.36550015725053803 8 562 82 2403 20 879 36 1052
444 -2.5425865856058758 2.5678153427959249 16.716108929930165 162 101 64 0.57519030032940055 8 1025 82 2666 20 973 43 3156
445 -1.7506286090252092 1.7663430995474323 14.36608385506465 200 136 94 0.6201166382469977 82 2744 20 1086 8 1133 76 1717 42 1398 39 627
446 -1.8463282702809884 2.1195711034472842 14.0107801748794 161 95 61 0.21212533339704379 8 1026 82 2718 20 1090
447 -1.9549200754060914 -0.62150276102351532 17.384900550812119 245 187 158 0.27868340705196459 70 1183 20 1233 10 2029
448 -1.2795308418755458 3.2833361754573986 16.866535148428429 137 64 41 0.94185362214553803 20 572 16 217
449 -1.2795308418755458 3.2833361754573986 16.866535148428429 137 64 41 0.94185362214553803 20 573 16 218
486 -2.5322991209297592 2.3827268486875792 16.828444572296512 202 152 127 0.63187297479217153 70 133 36 736 10 257
487 -1.4721828531680032 1.3359022240322234 16.262633086169032 190 155 135 0.72075010143181173 43 2476 70 843 36 1367
488 -0.6166402306432045 3.4090471540122915 16.368505313487525 191 141 116 0.90200699996036759 70 1168 36 1617 43 3464
489 -2.8474238916985111 1.024367873155329 16.522480241309122 61 40 28 0.54934070134035773 70 99 26 87 43 382
490 -2.9243909042267946 0.9387044583251295 16.480071279811416 52 31 25 0.87786674454457569 70 695 26 289 43 1226
491 -1.865734734299477 3.6613732533042822 15.979466109286649 154 87 60 0.18453789101831583 70 538 26 327
492 -3.6786206104076355 0.97276754843683277 18.098087762095808 11 20 15 0.33282481559333132 20 532 26 402
493 -2.5774625342011719 2.5019261214690345 16.660744143300853 180 128 97 0.27743572081789519 70 1055 26 577 10 1936
494 -2.2615056372239351 2.3801932350435768 16.878168949370526 229 209 202 0.76445420773711037 70 1056 26 603 10 1875
495 -2.8521827515500071 3.2519626452862767 16.241841304323358 126 67 49 0.49835755377586261 70 1015 26 608 93 825
496 -0.77762422930965103 -2.0505765336125927 18.016291062703417 18 14 5 0.30151068216859411 70 1122 26 645
497 -2.1446499041001479 3.3960291230285624 16.82206413220112 190 81 76 0.92877332466976237 70 956 10 1778 59 783 93 791
498 -0.26002856778410288 3.306247551796655 16.306973239967114 206 147 105 0.87236038379664438 70 1146 10 1989 43 3422
499 -1.8932098873270846 1.2680616315192561 16.77856740493338 195 148 122 1.0712963546672782 70 101 59 447 93 181
500 -1.1501348914022509 1.627641973415336 17.490675017541836 223 185 163 0.69217967823836835 70 1096 59 835 43 3275
501 -3.2006847522384798 -1.8949085056957591 14.689964866772536 17 6 4 0.40810841681803484 70 1175 59 908 93 911
387 -4.2583778653266977 0.7410587354328626 16.368124763494325 148 96 56 0.14556833471010339 82 2797 8 1272
514 -0.58048631337888046 1.0543930944319111 16.301428898740092 40 23 13 1.3455556016607242 59 855 93 845
455 -2.7317873277583233 3.7397085890819799 17.127786605167941 174 89 69 0.54516382116976747 8 797 82 2618 16 853
386 -5.6935263938333911 2.7297203005346824 17.042482572205284 178 128 91 1.1192595181338079 82 2795 8 1260
513 -2.9313482895515439 0.20631355930294298 16.738384570189112 229 181 159 0.55441825776592091 59 850 93 843
454 -2.925075898326809 3.1487001206567653 17.478029887169935 230 165 130 0.40287841930976503 70 854 16 777 36 1245
385 -3.2906800262404099 1.907707572138601 15.875664091514146 253 216 208 0.88917185752910799 82 2794 8 1259 5 1388 6 1730
512 -3.6734525000142471 1.2390556437637112 16.576715443609341 139 91 71 1.9800033810047097 26 541 59 765 93 777
453 0.34812315888510881 1.0591673244710085 17.128471574261773 176 126 99 0.32015137144870642 20 755 16 761
384 -4.2795334754543308 -1.5235267919416917 15.101470024268542 250 232 213 0.58766541991843368 82 2793 8 1257
127 1.9937695385382324 1.8262850505045074 16.463909118227718 143 117 100 0.081939576104975459 82 2386 8 547
511 -2.5168643943232829 0.9773845813626636 16.725993514740679 143 91 69 0.58043674505747167 59 807 93 775
452 -0.46145028516820219 0.3579599862038565 16.296670647478269 219 169 143 0.50494713010806624 70 827 16 759 43 1875
383 -0.76926495672763717 4.0102833282066879 17.773375465811615 230 184 171 0.33951156501748453 82 2792 8 1247
126 1.0107024342502955 1.8928983798310164 16.886281310383609 155 127 108 0.046142834820139846 82 2385 8 138
510 -3.6703759166160439 0.58853940013970263 16.594586276222028 176 131 110 0.33734440813749234 59 805 93 773
451 -2.1518362468742236 2.5917201392378124 16.681033562186215 208 154 128 0.54620751594600403 70 711 16 668 26 313
382 -1.0563036271870005 0.90456062890370392 16.456028329233884 28 28 30 1.052642769929137 82 2789 8 1241 70 1167 20 1210 16 1067 43 3451 5 1387 59 897 93 896 39 767
125 0.97822074178495377 1.5756692615994741 16.705513048178997 146 118 94 0.11171823792648417 82 2382 8 137
509 -1.2965401433121921 1.0036179023242193 16.438299422302325 65 37 25 0.8304564863990459 59 664 93 665
450 -0.1344356551757265 -1.1028428905055028 17.827679676925314 184 131 97 0.90842748232542236 20 524 16 435
381 -1.0529279666024554 0.90934857545128422 16.452670323647869 28 28 30 1.0610009841549002 82 2788 8 1240 70 1166 20 1209 16 1068 43 3450 26 682 59 896 93 897 39 768
124 0.65142074407991934 1.7441539376842892 17.347176091302703 220 182 160 0.77790077648169953 82 2381 8 136 20 758
508 -1.3609825810301224 1.1115639792970262 16.556021741670126 213 173 156 0.8528379128063549 26 463 59 432 93 596
380 -3.2522737759203402 0.85530280808033599 16.669072063254713 47 37 31 1.6350968490539768 82 2787 8 1218 6 1715 70 1157 43 3441 36 1603 20 1207 5 1373
123 -5.2126145848618677 1.489374701390404 16.424233564473809 61 32 14 1.0786963320211744 82 2380 8 130
507 -1.5896214855627966 1.1750561626780165 16.730818492905183 130 72 50 0.66133381591157292 26 412 59 592 93 594
379 -3.2522737759203402 0.85530280808033599 16.669072063254713 47 37 31 1.6350968490539768 82 2786 8 1217 6 1714 70 1158 43 3440 36 1604 20 1208 5 1374
122 -0.75677623868285715 1.1895969378305655 16.781944123782733 62 48 48 0.3810720358698258 82 2374 8 124 6 736 54 173 5 758
506 -2.5971646927875742 1.144372732582654 16.639160656745528 206 149 122 0.020105368465257119 59 714 93 590
378 -1.1810608323680669 -1.744611324612477 15.293646054956364 40 32 27 0.26406647348935286 82 2784 8 1238
121 -3.0305039966139362 1.4481959971827167 17.207128736734347 220 190 188 0.34831683015075232 82 2370 8 114
505 -3.5073147730373209 1.2053180586031336 16.304961631532304 112 63 48 0.52023413332292212 59 599 93 456
504 -3.4046322362937178 1.0072258733303969 16.552743314815455 83 70 50 0.33963934824236619 26 71 93 161
503 -1.704524371369865 -0.44178826243645464 15.528751647488233 234 193 173 0.19353578096304447 70 1182 59 910
502 -3.2006847522384798 -1.8949085056957591 14.689964866772536 17 6 4 0.40810841681803484 70 1176 59 909 93 912
484 -1.8010394161305738 2.3632425699624604 16.671532785540254 171 134 122 0.78483958287474875 16 1042 43 3420 26 653
483 -0.55424138529997202 1.0382985815904191 16.832859349543913 15 14 13 0.72254709479203028 16 945 43 3266 36 1494
482 -2.6086035532815157 2.598982311331155 17.2001570945563 171 136 116 0.47329989692549285 16 952 43 3155 26 576
481 -3.3494803744816353 3.4162805080263783 18.365413705685601 143 109 97 0.11625943440778676 16 674 43 523
480 -1.9931465475352439 2.4519018477748964 17.054047250508699 169 129 117 1.6575513036012601 16 186 70 135 43 473 26 125 59 471
479 -1.4631022127572206 1.0872089164047845 16.827807577855577 84 65 61 0.40284584138323359 16 143 70 494 43 384
476 0.5671199234927824 0.86699593857369583 17.492415345537481 5 5 3 1.0328124006908663 20 1149 43 3413 26 631
475 -2.8413118387337146 3.3633323562219202 16.781168939840331 150 100 91 1.8053936132092581 70 1101 43 3368 36 1562 26 607 10 1938 59 884
474 -3.1209563598172307 3.3004864570534127 15.931576510391018 198 171 152 1.2045233614477955 70 1059 43 3288 36 1504 59 860 93 854
473 -2.6617989058594955 3.6182309567489503 16.508303705577863 171 117 109 0.35400193360861043 70 961 43 2924 10 1780
472 -3.6874091868554726 6.0526897203001937 16.420119415453133 183 144 128 3.0424093609164258 8 620 43 2641
471 -3.5171330258505917 1.0221508468008214 16.727747601105431 183 169 164 0.91715135404482295 20 964 43 2458 36 1365 26 517 93 734
468 -2.6633517911264049 1.1102415627404969 16.915581490968702 193 157 141 0.82553430597681887 20 751 43 1229 16 646 36 713 26 409
467 -2.7325683535830465 1.1564247373421483 16.708972561227387 112 78 68 0.40134443117867741 20 750 43 1227 36 165
466 -0.39095065824405528 -2.078898579416586 54.499969601702446 116 99 90 0.16844554519155464 8 39 70 477 43 1176
465 -2.2559569970144269 4.9504922781997402 17.392378006115759 184 148 133 2.3382168655399758 20 601 43 612
464 0.81550485491380453 -0.84878222450788121 18.330554364894741 12 1 0 1.3806640807329762 20 1229 16 1085
462 0.55050269598936608 0.79795138239557173 17.147035959608221 33 9 3 1.8090089771030178 20 1148 16 1038 26 632
461 -2.2004571135667921 1.1647002342129849 16.966912786288468 240 209 188 1.3314121527572635 70 1125 16 1014 36 1532 10 1929 59 853 93 869
460 1.0573445536839532 0.63828857662620242 17.398031799128123 196 135 94 0.48891294653920914 20 1150 16 1009
459 -0.014189460353412994 0.28556858705938781 18.308020772231927 198 138 102 0.3905447076192925 70 1124 16 1007 43 3350
458 0.21946633353431166 1.8250537650339107 17.070018682322605 149 104 75 0.41828339147955362 20 1125 16 981
457 -3.7006262252588642 0.86122378992526305 16.575744710466978 21 9 1 0.91021412793217638 20 1082 16 942
456 -0.62351218336219272 1.2636318387224714 16.403793877081167 160 94 73 0.74279921689263129 70 947 16 894 43 2463
377 -1.9107948710870575 4.0065169465978334 15.873737812553458 251 231 233 1.9720943052118698 82 2782 8 1197 70 1160 43 3454 59 894
120 -4.5712957881980456 1.1846691372817713 16.527776150424533 69 34 14 0.25390372727393989 82 2369 8 108
376 -4.9785190355172304 1.2624297477819815 16.365383217274598 68 40 19 0.46874333599921758 82 2779 8 1215
119 -5.0763715327757417 1.2217051306775895 16.369854534283967 43 16 3 0.16334810374636602 82 2368 8 105
375 -4.9785190355172304 1.2624297477819815 16.365383217274598 68 40 19 0.46874333599921758 82 2778 8 1216
118 1.2349834335175467 0.98126585614132811 16.395273049346052 123 93 75 0.052104287946593712 82 2363 8 537
374 -3.8138547132314735 -1.8992948287121254 14.886676419183724 242 226 205 0.16062046430737317 82 2776 8 1213
117 1.0233563837999888 0.94006509248611692 16.413940555103146 155 124 104 0.071330224950372265 82 2361 8 536
373 -3.0630397203745887 -2.0404885271750008 14.927318322661771 110 88 77 0.12675443230648717 82 2775 8 1190
116 -1.3541000646801848 0.98294025119866313 17.21497557425133 31 19 19 1.4416054945905252 82 2360 8 535 6 1260 54 1288 2 1311 5 757
372 -3.0630397203745887 -2.0404885271750008 14.927318322661771 110 88 77 0.12675443230648717 82 2774 8 1191
115 -3.4697307500908874 0.99365988811946249 16.356568352717794 136 128 126 0.57442819028402059 82 2357 8 533 2 1354 76 1427 5 752 42 1173
371 -3.3684131197883409 5.3150647683437713 18.027109457562243 209 181 169 0.35811529502346207 82 2773 8 1198
114 1.685357958348894 0.75629536567192823 16.153275853353009 79 50 39 0.27027308575289827 82 2356 8 101
370 -4.3727293080862557 1.9348669032885373 16.872534038181914 70 31 10 0.067372231770129007 82 2771 8 1165
113 1.2391159722305396 0.7814655220193345 16.29683046420433 52 39 30 0.014257016881932696 82 2355 8 530
369 0.44062420050909279 0.61234005787050183 16.374530727840693 5 7 0 0.17245622893325507 82 2770 8 1193
368 1.0267234544490849 -1.3308669008392913 15.129165976422772 65 46 29 0.21365809442855183 82 2769 8 1161
367 -4.64757801406759 5.2969645180116425 17.464924388715556 128 102 76 0.055431870673248812 82 2768 8 1173
366 -0.51195488663210142 4.909461917981826 17.887896367510091 213 171 155 0.0057383004941193878 82 2767 8 1172
365 -5.7318361440310373 3.5960216057261229 16.951550464875307 146 91 52 0.02304523763316 82 2766 8 1169
364 -5.7318361440310373 3.5960216057261229 16.951550464875307 146 91 52 0.02304523763316 82 2765 8 1168
363 -6.2763559486827329 3.39335022768784 16.636281246617692 230 206 194 0.068959064372054388 82 2763 8 1135
362 -4.3142291448539067 2.7925038992124276 17.195328120303248 21 21 13 0.044414973441281896 82 2762 8 1166
361 -0.37014232757216337 -1.5567521283033101 15.336880598174355 90 77 69 0.086071909897622423 82 2760 8 1160
360 -1.5707971826204385 -1.6675037954549679 15.324403506165002 23 14 7 0.056968458772026935 82 2759 8 1159
359 -2.0082496534565806 -1.6335672889596824 15.338666820247584 52 39 31 0.089398685356748192 82 2758 8 1158
358 -3.9428810727294685 -2.2456435489593058 14.623654892251784 30 30 30 0.21601691715895516 82 2757 8 1157
355 -2.8683787014558328 3.4075841142847811 17.169218116821153 185 44 52 0.64310761662283566 82 2750 8 1100 42 1403
354 -6.3204411556348195 2.9541410028242452 16.445516971922576 22 22 20 0.20932069125742769 82 2748 8 1092
353 -5.5674778344932969 2.1725810405784061 16.619390380581926 219 186 153 0.098026990723372343 82 2746 8 1084
352 1.5146139612965155 1.8990315634149404 16.720997396049125 111 86 64 0.26139141689758139 82 2745 8 1131
351 -0.55891524266269133 1.0318156489054113 16.734273860684279 14 16 14 0.88006998132687342 82 2742 8 1129 2 1433 6 1656 70 1094 20 1122 16 944 43 3265 36 1495 76 1711
350 -0.75430263090384619 -1.7338847292416368 15.222459990064216 8 6 3 0.069789492145597043 82 2740 8 1073
349 -0.75430263090384619 -1.7338847292416368 15.222459990064216 8 6 3 0.069789492145597043 82 2739 8 1072
348 -2.6782221597477411 -1.5131247290527312 15.385239884705213 51 48 31 0.0082174997629757031 82 2738 8 1076
347 -2.6782221597477411 -1.5131247290527312 15.385239884705213 51 48 31 0.0082174997629757031 82 2737 8 1075
346 -0.23929649356208701 -1.839639506859287 15.077663191875637 41 31 26 0.089477075512479992 82 2736 8 1074
345 -1.9243159703763364 -2.8344387407502829 14.373921273436983 178 155 141 0.1599394355328857 82 2733 8 1125
344 -5.412368537975297 5.5163466456979293 17.271629863592409 126 99 74 0.0056623716477529548 82 2732 8 1108
343 2.4449726390233941 5.093317575887788 17.006896173209018 85 57 35 0.085756170981300978 82 2731 8 1109
342 1.12977909776628 4.715377101295493 17.480467998623247 126 104 83 0.089925191179309624 82 2730 8 1105
341 1.5381291022836308 4.4373484505224061 17.292950096326269 49 33 20 0.20807454177164025 82 2729 8 1106
340 1.5381291022836308 4.4373484505224061 17.292950096326269 49 33 20 0.20807454177164025 82 2728 8 1107
339 -0.36151686236005531 4.6668462179713854 17.953158134753043 205 164 146 0.27047281207005247 82 2727 8 1104
338 2.1155054099135686 4.1435606613352656 17.025485731058751 70 48 34 0.35133792686326881 82 2726 8 1103
337 0.82007457109832338 3.9310976419839707 17.207867284801818 55 22 7 1.2662005226291326 82 2725 8 1037
336 -6.1752352276416733 3.8738368366908293 16.746923660044374 110 80 52 0.054806178858574646 82 2723 8 1102
335 -3.137960493298269 3.3874576826384599 16.582153578338261 229 193 171 1.8544085694750903 82 2722 8 1099 20 1093 42 1350
334 0.55230193952047268 2.5544907711947005 17.181927431730756 170 175 175 0.025635163308712246 82 2720 8 1090
333 0.97930380536574446 2.1879994920125387 16.955703507555537 161 147 138 0.14998319087014392 82 2716 8 1091
332 -5.3073594032861218 2.3049334840799185 16.767574354780937 73 39 14 0.081469337622004812 82 2712 8 1085
331 0.29118675911675584 1.8149796334835413 16.999798059556657 157 123 114 0.034238840542749178 82 2711 8 1083
330 0.82142802379910729 1.2963877168080973 17.535017271417711 214 179 166 1.3937860439987597 82 2710 8 1082 20 1123 16 1015
329 -0.44432194009787118 1.2867960752237324 16.788542561082973 222 199 193 1.7363680783831787 82 2709 8 1081 2 1387 70 948 20 969 43 2464 10 1767 5 1242 39 551
328 -3.6508656497898619 0.55452966294325778 16.477239221484638 195 161 151 0.98383989698974184 82 2707 8 1015 6 1557 70 1007 16 889 20 960 36 1443 26 563 5 1240
327 1.0489994280930797 0.24413899084438462 16.123066604189724 45 40 37 0.38469320680113206 82 2705 8 1080
326 -3.9477863381992364 0.46987851108755951 16.360565668526355 70 34 15 0.087589618625128263 82 2703 8 1013
325 -5.2809189125312237 0.24635138557158159 15.862703421190869 190 146 97 0.22159135834843446 82 2702 8 1006
324 0.79891034885047396 -0.46052374760226678 15.841305826937729 39 27 20 0.66452171309789021 82 2701 8 908
323 1.2313869306860581 -0.71051435814464015 15.519814617760556 48 28 17 0.12228603284492121 82 2700 8 1079
322 0.8518909452508685 -1.0616247659068188 15.389688121194913 21 10 6 0.21489708783062883 82 2699 8 1078
321 -1.0283500684720408 -1.4012238788068123 15.47909422826492 65 51 42 0.21004755992805058 82 2698 8 1004
320 -0.02229905057209286 -1.5353635714863219 15.265637983830709 42 35 29 0.31036881070759098 82 2696 8 1077
319 -0.92355669609486102 -2.4232783965582034 14.70760316963951 86 78 68 0.032148726611000933 82 2693 8 1070
318 -2.5624398335701124 -2.5172410663862292 14.66369067247151 128 97 78 0.38901300294116431 82 2692 8 996
317 -2.7042019013446401 -2.8409203986472749 14.313741237778515 42 41 27 0.1941250318676529 82 2691 8 1069
316 -6.1185384177286517 5.4849779290902374 16.951541890227006 170 130 95 0.0028079600975007258 82 2689 8 1042
315 -6.3900235395847869 5.3876372880146661 16.843173111424619 118 82 52 0.043405005036342217 82 2688 8 1041
314 1.4709422402935923 5.2766648643437817 17.502214715874157 44 27 17 0.21725195865651825 82 2687 8 1044
313 -5.6978740501809746 5.0658881009295245 17.251724444787499 128 109 96 0.056723165714198789 82 2686 8 947
312 -5.7359885295490685 4.7241671069168465 17.095641425036984 103 68 48 0.055770634909483127 82 2684 8 946
311 -6.4971173085711902 4.6443282212820973 16.702568330514758 255 222 183 0.069931725125834204 82 2683 8 1038
310 2.6016455854619638 4.4182297132882624 16.845483592421594 92 64 40 0.057957926099544498 82 2682 8 1040
309 -5.277836051289257 4.3584616257670454 17.16142397387463 124 88 72 0.091199192841358884 82 2679 8 942
308 -5.6706465419946879 4.2420547945384737 17.066385666659325 199 171 127 0.037642928269208176 82 2678 8 1035
307 -5.9284709479579245 3.9758404655439379 16.875271459406299 250 222 180 0.064910776687336275 82 2677 8 1034
306 2.4275283386429911 3.6809730321754519 16.793170168091816 93 70 56 0.18384786069120831 82 2676 8 939
304 -4.7350935028813472 3.9788120865909771 17.475162712896982 61 42 29 0.49296833902355536 82 2673 8 1036
303 1.5272152266267858 3.4950634511509957 17.166603816519487 54 38 25 0.34616415661060551 82 2672 8 1033
302 1.3320195741707104 2.9020098633838036 17.11224982035154 95 72 54 0.62891809344194582 82 2671 8 1029
301 1.1375590549363048 2.7515312540666752 17.130479726314324 48 27 20 0.40711383564791326 82 2670 8 935
300 1.1967753163489392 2.3659670777404624 16.872406975275869 93 67 54 0.33006917004038616 82 2664 8 930
299 0.765647638823167 1.9738233833745855 17.172170789881104 80 73 63 0.45692342583465895 82 2663 8 924
298 2.2629001193099758 0.82231919307496781 15.940246306802146 131 102 78 0.02275689957107856 82 2659 8 1018
297 -4.1857064577078162 1.0097820404319897 16.54525283671093 85 42 18 0.022598234164024636 82 2658 8 1021
296 -4.1857064577078162 1.0097820404319897 16.54525283671093 85 42 18 0.022598234164024636 82 2657 8 1020
295 -2.4723437741312924 0.58451747435929757 16.489761616546836 234 197 188 0.072348312393497621 82 2655 8 1017
294 -5.4357516727763873 0.57251997668903876 15.942620763103106 158 116 71 0.094570114366064745 82 2653 8 1012
293 -3.6254011171037646 0.17026684593517732 16.444282317843442 217 176 162 0.88760838465499547 82 2651 8 1010 70 1004
292 -4.0934800713225377 0.22446551268983217 16.251431509484263 174 126 80 0.23390404094020234 82 2650 8 1009
