# 3D point list with one line of data per point:
#   POINT3D_ID, X, Y, Z, R, G, B, ERROR, TRACK[] as (IMAGE_ID, POINT2D_IDX)
# Number of points: 102, mean track length: 5.333333333333333
142 -2.8199740603576289 0.64471908124134103 16.152726596432238 148 94 68 2.1129211826147816 13 70 41 1005 27 1121
135 -2.9172315892626117 0.38291825273885877 17.684951725619179 195 140 118 0.14907199257357465 79 915 41 1171
134 -1.0013893106006815 2.8250938222939679 14.979841184857024 156 15 23 0.24139242577204512 13 365 79 833 41 1081
130 -1.7033983464730875 2.2558246861004836 15.258401678349978 211 153 133 0.5923078188268488 41 1024 79 746 62 1613 54 709 17 1070
128 -0.89490178424090316 1.5808348991600047 14.513789883273633 229 172 153 0.57496419005555632 79 460 41 920 95 460
127 -0.39436971697216117 1.1157309153079322 15.667675219951978 199 174 162 0.44501902663964205 79 453 41 782 3 585
123 -0.77088098433069174 0.73693031983647861 15.338803350611418 187 135 113 0.57441009515905217 13 74 41 139 68 133
121 -1.3991088017608029 -0.30653077810332968 18.177107398028912 233 191 167 0.54458474298409298 79 1000 41 1218 35 1086
120 -2.1100333808865481 1.8391275182376301 13.91824890695519 229 172 152 0.6975490448351237 79 997 35 1080 63 1085
118 0.22369457406625978 3.043681285385563 15.239189327790028 229 180 147 0.95925702642921085 79 975 62 2010 85 1192 35 1067 17 1206
117 -0.70922897578719313 1.8467234136633484 14.647137912153994 191 143 115 0.89693392964107288 79 881 62 1916 41 1149 85 1158 35 979 17 1172 27 1491 95 624
116 -1.3354009393025827 1.8733108541811532 15.019031213478478 201 153 123 0.95146789008574473 79 946 41 1147 3 880 17 1171 27 1549 95 622 68 1759 66 535
113 -1.9249551891174179 3.1470457960532241 16.455540790097 186 168 149 0.795930223428165 62 1617 79 511 41 1030 13 115 17 1024 27 739
109 0.0013018458995192339 2.914881616053441 16.140046584356885 225 172 140 0.87455103454962324 79 514 54 406 17 770 66 277
108 -1.4591039407166857 2.0202589554272024 16.083478306933539 176 139 116 1.6625703440912822 79 945 85 1157 13 452 41 1148 35 977 63 1039 95 623
105 -2.4429445926045128 1.0732572315743778 15.573173597353557 30 16 9 1.4333094022632451 85 977 13 388 54 792 79 874 62 1778 35 936 63 1035 17 1167 27 1425
104 -2.3451267838980074 3.1857732229905902 15.458277263919271 207 160 132 1.2155664238884498 79 974 85 1191 13 553 41 1200 35 1068 63 1081 95 665
103 -0.24960823339978824 0.93061268879899195 15.709971008548147 68 51 37 1.597938097423091 79 985 85 1190 62 2024 41 1210 3 896 35 1066 13 574 68 1832
102 -1.9159737954890002 2.8493477514002046 15.18304078077246 113 81 70 0.62954410140898087 79 888 85 1071 62 1860 41 1121 3 832 17 1135
100 -2.0776646922324873 2.4772124461124858 15.285402726322113 150 113 96 1.2359242792041405 79 647 85 896 62 99 54 708 54 106
99 -1.894079732521541 2.279654681352028 15.016719004435675 165 122 105 0.8813749207480468 79 178 85 735
98 -0.66804546674320808 3.4832855801695404 11.771602696328502 147 122 108 0.81113163752143846 79 305 85 572 41 964
97 -1.3840796505112456 4.2670884597637126 13.452381959826944 161 124 104 1.0298076664144542 79 857 85 1089 62 1637
96 -2.4539880700135313 0.85699243778181522 15.141838351090035 183 145 122 0.84912421861694154 79 873 85 1056 13 387 62 1850 35 934 63 1034 27 1424
95 -0.047601139215308751 1.0195327763927307 4.1339471020528586 100 62 57 0.0045830246102944224 79 658 85 217
94 0.22755389118428762 1.0101819165064829 15.678347206610363 41 13 5 0.31030502509790192 79 876 54 922 62 1854 35 975 17 1119
93 -0.61552690338023575 1.3421810010856319 15.521846978900866 214 176 155 0.8830601354366836 79 816 54 888 85 1124
92 -0.70410703654789708 2.2341670634813187 14.441963837759809 170 124 109 0.89225596826899767 79 825 54 814 13 396 62 1789 41 1117
91 -2.2481878109508906 2.3902017686545962 15.296349460502761 234 174 147 0.93889361940930649 79 745 54 707 85 988 62 1612 17 1069 95 520 66 463
90 -0.6318557106415621 2.1433279900928293 15.103471832077135 211 167 142 1.0359623890639433 79 636 54 571 85 899 62 103 41 930 13 109 35 403 17 1009 27 1144 95 463
86 -0.077461859786198725 2.858244715402674 16.08300150372737 149 103 81 0.59106093189248465 79 513 54 127 95 321
84 0.2107916151698086 0.99758398514189195 15.762614801130674 41 13 5 1.1372607885673029 13 389 54 923 79 877 62 1855 17 1118 27 1490
83 -1.8930811110980568 2.6156969304042339 15.247168678166235 214 168 135 1.0784172008795314 13 399 54 890 79 884 85 1070 62 1859 41 1120 17 1128 27 1430
81 -1.5247321810197505 2.5940416583723915 15.130191265827335 221 165 138 1.1717284516965916 13 428 54 813 79 823 62 1792
77 -0.62268371831592728 2.8397533594848485 15.399368925973301 158 109 87 0.38541134105297548 13 122 54 402 85 743 28 340
50 -1.0578854633531281 1.1064335049616092 15.084355172535362 254 199 168 1.426528472680572 52 895 13 447 79 942 54 962 85 1155 62 1912 41 1172 3 888 35 1019 17 1196 39 1571 95 646 68 1758
166 -1.789637047793623 1.0872760415181701 15.50263273796442 69 40 31 1.3150869180803255 41 168 3 399 52 383 54 68 17 108 39 312 95 93
54 -2.0546730363276051 0.99111048892804321 15.42328689703975 58 37 26 1.4577666485809511 52 930 13 548 54 1018 35 1064 28 817 17 1219 27 1574 39 1610 95 675
175 -1.2697828918110099 2.3750898067024506 15.081627488391838 126 90 78 1.5809013681011184 13 427 79 824 85 1064 62 1858 3 857 27 1493 39 1514
179 -0.48629653628763775 1.0821520923807779 15.705596549198265 123 78 55 0.72126363320226827 63 546 85 157 17 496
64 -1.6660315407242001 2.8152635270117456 15.285168438427002 184 80 87 0.55502733683808247 13 362 28 517 39 1486
174 0.1152101557875453 3.6052934373717456 14.111280195153476 85 41 12 0.60261304417910355 79 546 35 187
76 -1.4546562872722137 2.8953764213783857 15.321586121024685 163 106 84 0.22232280627190221 13 119 54 401
203 -1.7747838398376763 1.2688736966830378 15.431606165564622 127 78 52 0.3807556869265033 85 497 17 502
26 -1.424005650239303 2.1602734666041474 14.970508426713199 224 163 119 0.64166780739620688 52 708 13 249 79 469 85 898 41 1025 3 793 27 1295 39 1358 95 516
88 -0.43141235423238089 2.1196046267640116 15.299686977957153 235 189 166 0.50229905426013077 79 471 54 384 85 900 62 1121
215 -2.4210495034788 2.9178631561321118 15.424205472419091 226 172 137 0.96633420900260025 79 655 17 1022 66 410
165 -2.4639217453331237 1.100671818013548 15.505454576177714 34 25 27 0.951719668194698 79 875 41 1112 3 855 52 873 35 935 17 1168 39 1541 95 616
38 -1.3453015562858239 3.0216350402599703 15.261053291303918 250 211 174 0.75599449845836042 52 812 13 367 35 610 3 796 28 591 63 974 27 1435 39 1516
87 -1.853342313615673 1.178273689019274 15.54909266882019 225 186 173 0.62698982174835483 79 451 54 369 41 917
214 -1.9818051746707257 1.1784940538659121 15.401630375776024 81 47 27 0.5440867362648516 35 760 17 1004
37 -0.5520276338802147 2.5058610357216962 15.247983783692259 221 178 145 1.0532956661221464 52 844 13 429 54 894 85 1130 28 659 17 1125 39 1515
183 -0.98182274320393481 3.9561050399035778 15.274528657454526 240 179 150 0.50763224866550072 63 1082 85 1194 17 1215
85 0.40738920025397479 1.2924922717907399 16.316154714867078 223 178 155 0.21854064471872522 13 448 54 963 27 1521
212 -0.63835903664161653 2.9584724926318038 15.286960509588258 210 208 185 1.1308634893440044 63 976 17 1137 66 502
170 0.061476735461291475 1.2582649698431716 16.517492482047373 94 48 31 1.3162085097922986 13 356 35 767 85 982 17 1005
199 -0.12798993124147279 2.9766355742026693 15.837528920316569 242 168 125 0.56650426022914158 3 763 13 317 27 1306
140 -0.96929163359901704 3.2404014426741949 14.662274024255861 232 107 103 0.21498870109888016 13 320 35 790 27 988
22 -2.2920752791721477 1.1342560051311612 15.480272935500372 180 151 141 0.65174844769789742 52 533 13 301 79 448 54 563 85 709 62 66 3 751 28 308 63 919 17 740 27 1286 39 1348 68 1205
180 -1.587898481810663 1.1838367896106237 15.886008245215274 182 129 100 0.38767277941309519 35 383 63 729 17 493
82 -0.17575509996148009 2.6798731232818414 16.11709672785873 218 174 147 1.0029294425852455 13 400 54 816 79 828 85 1074 62 1795 3 831 17 1076 95 571
209 -0.41749317149304005 3.0692449255220504 16.085403110465812 159 126 107 0.21678424902567575 79 659 17 932 62 1133
207 -1.8119811492920321 2.1861201654964857 14.964344722702558 191 140 111 0.54663286685910373 41 608 17 759 95 302
79 -0.39008016560190467 0.63451824217439545 15.345581154948409 139 105 93 0.82307475559515808 13 350 54 788 79 810 41 1064
206 -1.8119811492920321 2.1861201654964857 14.964344722702558 191 140 111 0.54663286685910373 41 609 17 758 95 303
176 -2.6651284533167443 0.74758518731382484 15.337736974094499 152 117 84 1.0755326740402582 52 700 28 303 39 1416
78 -2.4071517777511997 0.6699897667654845 15.33053746473818 112 83 67 0.81942314573685537 13 348 54 786 62 1767
205 0.49542187055889719 2.8758543178763079 15.835474007278298 193 148 115 1.3070132720679137 54 128 17 543 95 160
182 -1.1672135069773384 3.0724690638627439 15.39974383040852 228 196 171 0.67568156493440079 35 779 63 1020 85 1081 17 1136 66 499
55 -1.9914695548958086 0.97429784300589595 15.19981386303189 58 37 26 1.321221687316054 13 549 79 984 54 1017 85 1197 62 2023 41 1209 3 909 35 1063 28 816 63 1080 17 1218 27 1573 39 1611 95 674
171 -0.76297412917066887 2.0533319765860378 17.414827867293731 179 128 101 1.1027585241575804 35 978 63 1061 17 1173
150 -0.74135829267893394 0.98417062277621614 15.25290440385395 111 68 52 0.87117758625370934 41 566 3 141 54 371 95 279 68 822
23 -1.840181025111113 1.1684194786290067 15.474819608166467 204 181 172 0.77658385157427767 52 704 13 303 79 450 54 368 85 885 62 1101 41 916 3 752 35 572 28 429 63 920 17 903 27 1288 39 1349 95 509 68 1417
89 -1.9428372212184681 1.0468599777983159 15.632424518241136 47 31 9 0.8664509894588065 79 732 54 564 41 909 17 1003 27 1130
216 -2.7223949649738897 -0.23648194750952845 12.407259669366786 84 58 41 0.73584866087984813 62 2038 17 1224
187 -1.0073672883434941 2.8782479361653945 15.233473540198515 175 92 74 0.44875963983693856 62 1132 85 910 54 588 17 1026 66 413
10 -1.703381193815336 1.1373024172348305 15.516900947890898 124 79 62 0.2982679102197146 52 391 3 582 39 921
69 -1.0073778346704769 3.3379204827351892 15.179318243443843 212 164 167 0.45683111854511249 13 319 54 592 27 989 39 1436
46 -0.23162325948690643 2.9061100845756775 16.162027945587159 141 89 81 0.94246787722397507 13 402 79 836 54 716 62 1919 41 1124 85 1132 3 833 52 846 17 1179 39 1550 95 603
172 -1.0914364778464476 1.0978464132125931 15.245322794505048 224 191 174 0.61327128302149647 85 1154 35 1020 17 1195
45 -0.23600179114832034 2.9048033126050483 16.114544302857865 141 89 81 1.0717410862006973 13 401 79 835 54 717 62 1918 41 1123 85 1131 3 834 52 847 17 1178 27 1434 39 1549 95 604 66 540
168 -0.61466628472498774 1.1881116539702588 15.548712519974506 109 54 31 0.52425128688031852 13 86 85 156 35 104 28 103 63 552 54 70
41 -0.62623252603797264 2.9890985978696243 15.445003186047469 223 188 160 1.087985156282659 52 814 13 408 28 521 39 1521
40 -0.86706206413651776 3.0267788192278866 15.294534920977792 255 230 205 0.6130232854493961 52 773 13 405 79 890 54 897 85 1082 28 596 39 1520
136 -2.1291079269822895 1.2418525492009493 16.325555822053882 95 59 42 1.1084362646682071 41 578 85 495 17 501 95 386
133 -0.40927630516451036 2.264311565804737 15.534049092320183 212 156 135 1.0523361414333452 79 826 41 1077 3 794 27 1428
74 -0.69958002911943218 2.9316608222658997 15.355848127836673 235 207 192 0.52476308143797978 13 123 54 403 85 539 41 810 28 339 52 547 17 777 27 980 39 1364
5 0.10995438830124381 1.1423737966021283 15.741676656920006 108 76 61 0.85905360992551871 52 95 3 410 39 332
132 -0.88477417495651334 1.4958217559288849 15.859162898290025 185 133 111 1.2719590425779315 79 815 41 1069 85 1062
200 -0.99810239601297746 2.1158072880931496 14.845232241080762 242 196 172 0.46273110634870573 3 881 13 453 79 922 27 1527
73 -0.36245523105526201 2.0461370475962553 15.446689689372288 188 146 122 0.90300643076417808 13 111 79 637 54 96 85 724 17 522 39 1228
129 -2.3276699517014463 2.988633880983798 14.710468268009571 178 129 107 0.50647554479685208 79 657 41 939
70 -1.349289784625777 3.0174270547194073 15.208357061919049 223 217 195 0.3659603368367822 13 368 54 819 3 797 28 592 39 1517
144 -2.3746123200412277 0.84816541778402987 15.673085318454612 186 131 100 1.0167479984407686 13 298 35 755 41 1008 85 976 27 1128 68 1413
17 0.061632860739008401 1.0600271786876942 15.675712779090901 184 162 151 1.2290949210159401 52 631 13 238 79 454 54 72 85 712 62 1108 41 910 3 677 28 311 63 842 17 906 27 1285 39 1214 95 511 68 1420
145 -1.6650337992764854 2.2164613417638268 15.226192206053533 221 154 111 0.88541775844743642 13 310 3 759 27 1294
24 -0.39274553945736557 1.1130151504829344 15.669774650659138 210 190 179 0.7611296962258749 52 630 13 304 79 452 54 566 85 711 62 1104 41 783 35 576 28 433 63 918 17 905 27 1135 39 1350 95 290 68 825 66 397
67 -2.1638127826684816 1.8402962635310045 15.457728259871283 250 214 202 0.82705511832638789 52 933 28 821 39 1613
68 -0.7429651959024467 2.0745220432275522 15.064217608949081 184 143 115 0.90985788626961062 13 107 79 470 85 723 41 793 17 521 39 1360
71 -1.1656765765902268 3.0622033607105497 15.290916076051454 228 220 205 0.7794361553428496 13 404 79 889 54 896 41 1125 3 835 28 593 27 1436 39 1524
202 -0.20093785787723215 0.94084715506163608 15.902165307632345 71 39 18 1.2586018407135522 13 575 79 986 3 897 27 1576 68 1833
75 -1.0649759638686069 2.3132407647940161 14.69260510631741 219 178 158 0.48491007210925963 13 312 54 397 79 649 62 1119 17 1014 27 1296
