# 3D point list with one line of data per point:
#   POINT3D_ID, X, Y, Z, R, G, B, ERROR, TRACK[] as (IMAGE_ID, POINT2D_IDX)
# Number of points: 210, mean track length: 4.461904761904762
126 0.91948177046376367 -0.49169914025948064 8.0706029925609073 199 151 105 0.70304326632855585 18 633 78 1490 71 1337 25 3159 77 897 36 670 91 590 74 727 82 741 68 1342
125 0.71284988344447298 -0.48830184556353118 8.1188414658135493 125 90 59 0.87429350996070332 92 1090 78 1488 45 1821 25 3132 36 629 71 1228 54 322 91 466 82 710 94 583
124 0.9225226208288303 -0.69555068806747489 7.9516317623366755 218 182 149 1.1456852515075153 13 1308 92 1108 78 1484 71 1334 25 3127 36 667 45 1858 58 235 91 671 46 947 86 2357 82 736 68 1339
123 1.4133028542264336 -1.2334440211285544 7.8582850734303236 169 120 77 1.1768778788451584 92 1103 78 1478 71 1331 25 3185 77 916 91 580
122 0.16523115937065722 -0.87631463268744791 7.6854460135321068 94 81 64 1.1323727113060669 13 1290 18 593 78 1453
121 2.2704968320689596 1.1906809525665536 6.2480053236565087 246 250 249 0.080194260893726027 67 1180 78 1445
120 1.6344186675931056 -0.97963906474347795 7.3260792138908988 110 81 51 1.4612722020372362 13 1263 78 1412 79 1313
119 0.54428306595900222 0.58601817404421486 8.08719759591383 92 71 57 0.68646492287870264 13 1077 78 1336 79 1264
118 1.4269908466380921 -0.60241544002521585 7.7185211333794896 37 33 27 1.0769427160253637 92 921 78 1299 45 1563 77 638
117 1.1399897550852263 -0.64291246099161314 7.9852362168274107 128 89 57 0.702015962702084 67 1127 78 1298 36 490 71 423 82 511
116 0.73056445029192563 -0.64620039678493935 8.0699963098838357 120 84 49 0.7987952126237271 18 489 78 1295 36 356
115 0.5719717772878069 -0.6880994058450226 7.9859796892109669 105 83 63 0.21726633788340069 67 1124 78 1294 68 1163
114 1.5880652414488199 -0.60913078605140003 7.6672276733244606 194 182 165 0.89107400740218856 92 552 78 1092 77 218 36 78
113 1.7526739681928503 0.11418420747329928 6.9106531921042418 186 156 125 0.7076922277150014 13 1065 78 900 18 536
112 0.65342181398191712 -0.53979545557094222 7.9899832718985699 187 157 130 0.56657041201890912 92 237 78 860 45 1440
111 0.3525279085374563 0.11346586028744243 8.311493755695448 185 134 105 2.261407388027397 67 1274 13 1327 79 1363
110 0.65054798029698491 0.10951131579432137 8.0444013129458476 112 78 69 0.66896669770572625 18 653 13 1318 82 773
107 0.39346068667588313 -1.1068777321059984 7.9294032227929891 136 85 54 0.75385973316817334 18 478 13 1032 78 1283 54 267 68 1034
105 0.60267098236470085 0.030576820873693455 8.2480636167453607 113 75 54 1.0317526865535684 92 939 13 947 78 1234
104 -0.27006607775260977 -0.57448653790002024 8.642692014684064 146 96 70 1.6084972700828311 18 433 13 941
103 0.62832232464889171 -0.59408526861484667 8.0414921488536937 61 35 15 1.209924318082817 18 429 13 938 25 1777 68 159
102 1.3530987229617832 -0.5331810193673111 7.9425067285619431 154 126 108 0.53679167804130812 92 712 13 799 78 1098
101 1.3677947379351074 -0.76358435005846148 7.9389269113953631 126 100 76 0.66400155705854214 92 196 13 626 82 100
99 1.1447068463312082 0.12260879210115222 8.076599447221815 65 36 32 0.4560286028128504 92 1067 18 620
96 0.25529650993353009 -1.0457593173692508 8.0678154784216858 139 72 39 1.6248887862157713 67 1192 18 594 13 1269 25 3082 82 704
95 0.16128823962836275 -0.65690527538938714 7.9238988194677598 25 16 8 0.97774582210491878 67 1167 18 568 13 1235 78 1368 25 2767 77 738 36 502
94 1.0881913544806983 -0.87980539000578073 7.9723113412359981 179 105 73 1.4541515668747991 92 981 18 522 13 1040 79 1172
93 1.3733039283363164 -0.49603321246474491 7.6544082420103159 151 99 83 0.90611877400218044 67 997 18 493 68 640
92 1.2317032868825017 -0.51326294491368218 7.9268876196643516 159 111 88 0.50080766770540597 92 930 18 490 13 1047
91 0.55963204345854434 0.088043029940574849 8.1933219494402394 70 18 3 0.64795215092226144 92 731 18 192 45 1586
90 1.949004220967018 -0.14773431836374532 6.9541592285904654 144 73 41 0.4895261325619788 67 709 92 274 18 147
89 1.3947825799635427 -0.54025921384917008 7.8147123164322725 85 39 21 1.340445364452872 92 550 18 123 13 635 78 290
87 0.2819135954090336 -0.59938863183335511 7.9268593411585595 157 139 123 0.91224172230044986 92 214 86 1996 18 136 67 869 13 807 78 1085 77 214 79 763 74 432 82 105
86 0.9651854648511824 -0.25681524706156039 8.1863703195608526 197 133 98 1.4634856437142152 45 1843 92 1093 86 2365 94 586
85 0.97584050458787241 -0.25852531010175844 8.2203678223053007 197 133 98 1.0213935704803765 92 1094 86 2364
84 1.5068264592588037 -0.62859083404480209 7.8475848888231319 64 60 50 0.84125852993464167 67 1228 86 2361 18 617 71 1296 77 860 58 209 74 697 35 417 17 1183 82 707 68 1241
83 0.8971183484601325 -0.49841859671346811 7.9820903464980457 187 129 92 1.8119590748260439 45 1841 86 2341 92 1091
81 1.434522533270141 -0.67308818044413066 7.8426393890915413 54 50 41 0.7653182953107267 45 1735 86 2305 94 398
80 1.1317005868602945 0.59878113623861429 8.1214948675164962 215 221 233 1.4110411224952786 92 996 86 2286 18 543
79 1.4606566832365484 -0.50584239640950845 7.7540165978294651 177 157 166 0.68717064462802779 67 1132 86 2274 18 530 71 789 74 627 82 523 68 1058
77 0.17034526845899539 -0.64383836510361869 7.8172414125314882 38 34 14 0.77951358480612265 67 1168 86 2268 54 276 35 257 68 1053
76 0.62107138707594212 -0.53333031470044279 8.0048058049544686 195 164 161 0.7229054230564167 92 927 86 2238 13 1049 78 1225 71 107 79 1180 46 649 82 520
75 0.42625022514319522 -0.63874050263940618 7.9244700913093071 49 51 40 1.147424658460741 45 1668 92 919 86 2237 13 1046 78 1293 71 436 77 636 35 261 82 518 94 404
74 0.73644759456559006 0.5990553118066495 8.3148979583993512 202 212 221 0.62355974345674969 92 946 86 2203 18 506
73 1.2791245579342536 -0.18850510083890801 8.0163083456030613 197 142 106 1.5714488118714893 45 1156 92 829 86 2186 18 436
72 0.5840110206674809 -0.65339159378600276 7.9613059282199181 108 73 64 0.59698345403152941 45 1422 92 700 86 2111
69 0.6309794366088487 -0.56738157425811631 7.9465162686672786 98 66 48 0.37282279498558107 45 1134 86 1797
66 0.84609052310128641 0.461630568553619 8.2416973911319378 246 193 141 0.82632787156493326 67 1175 45 1798 79 1298
65 0.68208255679650387 -0.042255971284039767 8.2692370041945669 241 163 113 0.94576274727931864 67 1196 45 1790 18 572 92 1033 13 1244 78 1428 25 3093 77 754 36 574 54 283 58 178 91 113 46 858 35 363 17 925 11 597 68 1246
64 0.61356339617479982 0.04858329510570842 8.3157974703257587 212 135 94 0.98762678240571877 67 1079 45 1680 79 1110 13 820 94 419
63 0.94209547876101429 -0.045130258854776471 8.4981422103908777 251 243 181 0.69500941189821841 67 1260 92 1112 45 1861
61 0.46448467712361802 -1.0354496824393211 8.0064923879338945 214 144 101 1.2884868514537602 67 1243 45 1855 18 626 78 1480 25 3187 71 1360 77 851 36 695 46 994 35 464 17 1175 82 769
29 0.50189302454115348 -0.63252258273287776 7.9309770199267025 198 188 176 0.83080402071407466 67 1169 92 1028 45 1739 86 2307 18 526 13 1139 78 1370 71 806 77 740 36 503 25 2534 54 213 58 135 91 354 46 635 74 588 35 16 17 640 11 359 82 615 68 1054 94 538
28 1.4998010749150408 -0.74304418516248016 7.7903714194662843 204 174 148 0.97634000308844338 67 1165 92 1025 45 1779 86 2304 18 562 71 1216 25 2961 77 804 36 626 54 318 58 130 46 845 35 360 17 1061 82 664 68 1165 94 400
27 0.36595407389035617 -0.78101928654861064 7.9353242875127572 202 178 154 1.0474544577999698 67 1164 45 1778 86 2303 13 1232 78 1366 25 2762 77 803 36 560 54 315 58 124 91 97 46 758 74 587 35 357 17 1180 11 630 82 604 68 1236 94 534
26 1.4310500756343687 -0.84045598969407032 7.8533191670196905 70 62 54 1.8409585368000663 67 1160 92 1024 86 2337 18 592
25 0.929905398302454 -0.92141218825372484 7.9614717507126747 200 151 119 1.6529628968665058 67 1155 86 2302 82 660
24 0.92733690909859778 -0.87731272582449393 7.5307292725513602 200 151 119 0.2846566007934791 67 1154 92 1017
22 0.94430695457192948 0.40454880300948154 7.9976927266294071 157 103 76 1.1250048144878289 67 1083 92 841
21 0.71464512506880906 0.11914295369802519 8.219217477594654 204 158 124 1.2644706172003519 92 831 18 367 67 1080 13 949 71 466 77 550 79 1112 54 94 82 538
20 1.608790725270659 -0.60942752727305427 7.7858308710740198 166 150 139 0.82656812005169122 67 1069 92 922 45 1427 86 2177 13 928 18 323 78 1091 77 217 77 526 36 77 82 377
19 0.62323050821227111 -0.53841815953027239 8.0405108592351553 195 155 131 1.0375968834139073 67 1065 92 928 45 1567 79 1181
18 0.24661772036071075 -0.64281407856918438 7.9195217004386658 177 165 152 1.0595834537208719 67 1064 92 987 45 1738 86 2236 18 532 78 1369 71 1090 36 354 79 1173 91 107 74 629 82 614
144 0.6864087968724949 0.14410383556361034 8.2637594631365445 134 67 25 0.55595380172377029 18 440 71 143 82 404
17 -0.085227900248813326 -0.062659352095128296 7.1614711878040804 193 145 114 0.30653010630448263 67 1006 92 828
16 1.8805757518839672 -0.13842308408741452 6.9675026154233652 178 130 94 0.6164534432212343 67 1004 92 935
141 1.3752449882418589 -1.7180869128832892 7.62583178070056 127 68 39 1.2479128790990752 13 1302 25 3183 74 737 82 733
14 1.925019990650005 -0.14575965544268688 6.9651628320224903 122 83 50 0.58724863667646821 67 893 92 725 18 346 13 653
1 0.51695703251376046 -0.67690988220131842 7.926167706155602 187 175 163 0.30281690796783534 67 257 92 189
258 1.6567354565887025 -0.60249699614448049 7.7443941999940389 32 11 2 1.1327365395615481 18 525 68 892
129 0.50796882968687451 -0.10930088897664451 8.1077593955836686 142 117 106 2.1140979055465454 13 1243 78 1427 45 1825 86 2314 92 1064 18 570 71 1105 82 530
2 1.2449419793672065 -0.59668142439478988 7.9323487091606424 181 125 102 0.4969180444057108 67 298 92 549 45 289
259 1.4853813095696844 -0.84953092910800199 8.0429092048733484 39 28 22 1.3827717770671217 54 316 68 1164
3 1.2631126654558322 -0.57029071626934269 7.9201129858648107 135 79 59 0.54125107378017645 67 301 92 221 13 146
131 1.3300390422811605 -0.31253349167306765 7.6490369035264134 166 115 95 0.57393897555838091 78 877 77 239 82 116
4 1.9760938975250451 -0.53032970208328478 6.8348726713178074 130 93 62 0.54924678357107493 67 307 92 537
261 -0.24421872577252152 -0.26464060566186898 6.5691559087440874 227 174 143 1.5987449427228455 36 566 68 1299
132 1.2831341259671039 -0.17987513908969696 8.0691925485446649 182 125 95 0.094580287631204615 67 891 77 269 82 133
5 0.26073663548311804 -0.57660813835728286 7.9806760105788799 148 92 62 0.28352769920880094 67 684 92 542
6 1.2184029335516624 -0.56935177126594982 7.9001943106213224 105 56 28 0.89537082580404181 67 689 92 703 45 1425 86 2113 18 333 13 632 78 843 71 92 79 769 82 110
263 1.4501599333821447 -1.7644972144889424 7.8903085670328208 0 0 0 0.7046234992073539 54 386 67 1241
134 0.5596741167725805 -0.14335860339654943 8.0979494075185965 173 122 91 0.48982103033761337 67 1135 71 131 82 396
199 1.2421460315166124 -0.50639624706202258 7.9349754952848013 188 153 134 1.1746833733211379 67 1130 92 929 45 1785 86 2273 18 491 78 1373 36 94 82 522 68 891
200 1.2645102827723835 -0.0035559608386888483 8.2687428479628675 189 105 69 1.4355389461596655 92 1036 18 602 67 1136 45 1684 13 1245 71 1107 25 2775 77 814 36 514 58 140 54 229 91 114 82 668 68 1180
201 1.2773824182799243 -0.61930647569917818 7.7062214625615049 208 183 174 0.48786472538922232 13 122 79 365 18 120
202 1.3670967192605004 -0.66103863775606175 7.840312404044937 237 232 226 1.5809860124550017 67 865 79 946
203 0.59708579168052978 0.5010897192923911 7.9148361833332865 173 137 101 0.11421043255093324 67 1084 79 1202
204 0.55360020395482479 -0.049644037726988867 8.127530212066187 118 71 41 1.6678271974945027 36 512 54 226 11 553 68 1176 18 571
205 0.69082858463771257 0.054518291864271498 8.2111740610212358 67 29 10 0.34823685410983751 36 143 77 659 54 227 58 56 35 274
206 1.1390317900146936 1.9815674686925244 6.0940042583468355 6 6 6 1.5712065417650407 36 438 54 253 11 275
207 1.1156035578228822 2.1037813192507024 6.2091051794496419 243 250 250 1.9158681203116554 36 648 54 301 11 570
208 1.0641009227050515 0.12183003416526902 8.1550980294845736 57 36 16 0.28477213657871492 77 867 54 351 58 181
209 0.90678069069352008 -0.47681533664053805 7.9478133811169096 177 114 81 0.65717445484427861 36 671 54 370 91 591 68 1341
210 0.64568583544577085 1.7652998823223629 6.3538826667716055 254 254 254 0.83644679519401965 36 724 54 408 11 760
211 0.64568583544577085 1.7652998823223629 6.3538826667716055 254 254 254 0.83644679519401965 36 723 54 409 11 761
212 1.0004225014632191 1.7788215480707652 6.2539044190951163 255 255 251 1.3157949908446851 36 726 54 410 11 779
213 0.88757256502048643 1.4750646100182747 6.7239660825809242 74 55 41 1.400255485857411 36 745 54 427 68 1415
214 0.82816545888356197 2.0755650346963654 6.0698713840177776 36 38 35 0.82940931023620268 36 749 54 431 68 1412
215 0.82814192678720733 2.073479671626969 6.0663631032329599 36 38 35 0.68569880542795036 36 748 54 432 68 1411
216 0.3096132060518465 1.7637104826464491 6.574334075054205 253 255 254 2.1048630616471842 36 757 54 437 68 1421
217 1.3737962172318354 -0.29971022916231593 7.959289483357602 130 93 70 1.4209488238414141 54 325 58 46 68 1173
218 -0.29803099349005341 0.73007073100144348 6.3183029419306411 241 243 246 0.090621020666357868 77 344 58 81
219 1.4415245930505325 -0.8467264372719937 7.8681838601973437 51 39 27 1.1575037534937767 77 852 58 128 46 844 82 661
221 1.2179551082754665 -0.14831221575447304 8.1765231258750077 114 85 69 0.69575270123011135 54 326 58 180 35 29 17 651
222 0.37661462467165729 -0.87138662486678542 7.8966194041674305 35 20 16 1.2884486842534786 54 313 58 175 67 1159 18 595 25 2964 71 1069 91 348 68 1161
223 0.3107553451486943 -0.68118650034304562 7.8640465372082389 52 31 11 0.60986320088269563 71 1088 91 99 74 662
225 1.3009355397348563 -0.45013628345430157 7.9938812144000044 222 171 144 1.2671960507842397 25 823 71 115 46 120
245 0.37799856837617363 -0.87499129263664277 7.8944922531306592 58 44 35 0.76625973573476225 54 314 11 589 68 1162 67 1158
246 0.27069535793830496 -1.0205669555283814 7.790611690118916 156 110 77 1.0475214656957386 54 269 11 626 58 173
247 1.3339353798389191 -0.57115287543980087 7.8729616847004227 102 57 36 1.3356962678612565 46 104 78 1090 82 102
248 1.1602913595665205 -0.0010731632915023581 5.6108175454357072 230 177 142 0.32614729127247888 71 116 82 123
249 0.61170143851169279 -0.39796474249963437 8.0771299119142377 108 63 30 0.63699837032274387 71 455 77 237 82 130
250 1.2181194643379007 0.18549367265881656 8.1422627863123118 139 90 67 0.37092142814798978 67 907 82 148
251 0.53325606618322952 -0.81012621263790074 7.937065337422851 111 64 38 0.81694260826659904 46 94 78 1217 82 374
252 1.9787067518535912 -0.1494356404753463 6.7615399689688367 186 131 90 0.39685401855058666 36 102 82 389
194 0.24557670671595669 -1.0276396987821077 7.7991608134629011 154 119 97 1.4122921443966858 78 1479 36 665 54 345
253 1.338049847027355 0.5828189176381694 7.9829203054738676 62 33 22 0.66609045387291088 67 1093 82 423
195 0.94026343259726997 -0.022142526122317572 8.2037955554161552 217 191 176 0.51629595697752539 77 901 36 677 54 373 58 240 82 742
254 0.43807189983101408 0.4568380586459389 7.8418485067239576 85 54 39 1.2017886337901806 13 959 82 627
196 0.52355786528174275 -0.52197651256461963 8.1751648217700765 162 134 119 1.055946175753669 36 717 46 995
255 1.1212321882222931 -0.50046402318698646 8.0086358140229468 127 67 33 1.0537852431336463 25 3161 82 759
226 1.3835348259277755 -0.53856193282705611 7.8215238682001402 206 164 150 1.1071049575734693 25 2237 46 464 82 111
197 1.230880863749801 -0.53557357105805481 7.955747400619309 197 150 124 1.2587403459297593 71 94 25 2236 36 95 78 861 77 216 54 72 68 890
256 -0.3510248757504924 -0.20975119010651963 6.4770744731276491 85 52 52 0.52028493534955678 18 165 68 181
227 0.22492926747311989 -1.0016728663843195 8.6578247018125811 102 86 79 0.78260596119711989 25 2760 46 848 67 1157 68 1035
198 1.1773209487926788 -0.7123328281978959 7.7451327117346187 135 88 55 1.5276149015777762 18 650 25 3206 36 716 67 1256 78 1510 77 933 54 412 58 278
257 0.64826233090203267 0.19320950240058468 0.5168337980293608 118 63 34 0.00649524268990461 25 1810 68 650
228 0.65501839230498204 -0.056516023242613123 8.2011827101370987 203 140 107 0.76247280048024002 71 841 46 859 82 397
244 0.035022554956122907 -0.095951867017834827 6.3782288630055763 112 67 35 0.011007165512069235 35 548 17 1374
243 1.3599254124373528 0.03726451714909957 8.2683328096021764 101 55 23 2.0509200684535598 71 136 36 146 25 1832 82 401
242 1.0819085981630967 -1.2034099490360484 2.632175883720492 176 111 84 0.15080746191041597 54 456 35 586
241 1.0952248682650327 0.21343750847865919 4.7659116621233562 161 109 85 0.51766973865529309 54 452 35 582
240 0.44181067348994973 0.45279267821599051 4.8223705402323906 86 65 48 0.11713618703525093 54 421 35 557 17 1411
239 1.9970329498323358 0.0027882541246971558 7.3741710242636831 100 74 57 0.64407216811043655 77 973 35 555 17 1397
238 0.33253013938132286 -0.17953206965336252 7.8517199392943144 245 173 128 0.60575309924947185 54 420 35 553 17 1395
236 1.1492000108438116 0.11623222703053336 8.0474120616817419 66 37 29 1.2573447102107449 77 935 35 522 17 1314
235 0.53756923482662144 0.23684097245530328 8.0688405046397662 218 139 102 0.79643779143423066 77 865 35 422 17 1186
234 0.32388344826137178 -0.68301387781801337 7.8900614456349825 31 19 12 0.37290274064058782 54 277 35 258 17 637
233 0.24014635231932577 -0.58578981057753887 7.9126510916497166 75 23 0 0.44447461834436863 71 105 74 433
230 1.2687995149539308 -0.64498113683462066 7.6940543331927937 43 37 21 1.6859184380924539 86 1992 74 411
229 0.35938956414550199 -0.66785554125635505 7.9831172650135338 40 35 39 1.1009997692809668 25 3088 46 913 67 1226 68 1294
193 1.8519470483003952 -3.4466136043173279 9.4896445805757992 20 20 34 0.2094407073032544 36 659 46 420
192 0.77926972182387155 -1.1967856417798832 7.5929983839195767 182 146 124 1.8007987691080374 25 2955 36 622 58 123 82 701
191 0.61623900058384873 0.8842952339548662 8.3080338164364402 107 84 71 0.52043497572376507 77 832 36 584 91 129
190 1.0632393970558718 0.41329048600372748 8.3963923735046198 156 127 113 0.46429416443944244 25 2991 36 578 91 120
189 0.8512193401526309 0.39093487059077137 8.2536603100606118 164 135 121 1.8302727014892963 25 2993 36 577 68 1190
188 0.50756752434613162 -0.15498725965404825 8.0977954169070827 174 149 116 1.8654706023503214 25 3091 36 572 58 53 91 357 11 473 54 84 68 1245
186 1.7974997829663693 -0.95505939356327407 7.8326138212597609 125 99 82 1.4090496000800945 71 1211 36 557 68 1040
59 1.2122546754922987 -0.1728839797478891 8.2282975411286188 151 66 56 1.0044323938275432 67 1234 45 1845 78 1461
185 1.3015414999422059 -0.091189361580707534 8.1208699710172976 122 87 65 1.616655292750707 25 2772 77 755 36 515 91 115
184 1.0366085218823555 0.21967256807679325 8.1318430487109001 146 126 117 0.76712222255376439 77 756 36 513 58 187
183 1.675068686378717 -0.65212484883777488 7.6793128845538794 121 92 76 1.6914837904234241 71 769 36 495 74 585
182 1.4955944267407779 -0.60300815088204784 7.5242227156427539 44 31 26 0.45126637490915106 78 1371 36 494 91 103
181 1.1545818970480297 -0.75881818074864105 7.961850028449228 108 80 56 0.60535341257964126 36 492 54 270 46 760 82 608
54 0.6233069443299849 -0.13748571967043277 8.136015958331198 148 59 59 1.2885482714374632 67 1173 92 1032 45 1789 13 1146 78 1375 71 840 77 544 36 506 25 3092 79 1291 54 281 91 112 11 474 82 531 68 1067
180 0.86329208489560094 0.53333843800059 7.9117455953504257 98 83 73 1.600982936316991 25 2789 36 406
179 1.1703523685470789 0.0085405760390286599 8.4480791078158362 167 126 106 0.74903913448298487 25 2774 77 657 36 378
52 1.6717023172146712 -0.59980043086205725 7.7159134923365134 31 12 33 1.1581863715367107 67 1171 45 1745 86 2309
178 0.43275980878136067 -0.69010588856436772 7.8872455143992086 46 39 40 0.86131752366762337 78 1292 36 347 54 278 35 259 68 1047
175 0.90438541751637447 -0.64255408642377587 7.971987518786265 189 145 116 0.84570430358605642 71 91 36 92 68 888
48 1.1752143540507534 0.15393050201090588 8.1609821672255372 142 57 58 0.89217744899973128 67 1013 45 1592 86 2193 71 844 82 408
174 1.2171567154883911 -0.47855108984829986 8.088380265328464 124 73 41 0.67762762600521798 78 1374 77 741 36 504
173 1.4362651343503809 -0.67559176181651226 7.7784034024878572 28 23 10 0.69981983208356857 78 1300 77 629 58 29 54 215 46 763 82 611
46 1.190266930569515 0.10433044255284783 8.2145589187600887 238 181 142 0.50109601346335098 67 1011 45 1582 86 2187 82 543
172 1.3029516731364268 -1.1484910151120358 7.7512932384972233 198 132 100 1.4898894292194906 78 1211 77 485 79 1165
171 0.58598523559800186 -1.3791150315033867 7.9568993876189706 171 103 71 1.3620608145164432 78 1057 77 484 82 56
169 0.65302397364283615 -0.3021980850896665 8.3242368055522231 197 117 68 0.39998659367121103 78 1317 25 2976
42 1.3301039380159718 -0.6625875883189758 7.7937871884143846 62 39 15 1.2053518064574589 67 271 45 1114 13 121 18 96 78 265
168 0.899634566745804 -1.2571234444619526 7.699297128155659 231 195 169 1.281228789747171 78 1545 25 3235 77 976 54 443 35 570 17 1419 68 1425 36 759
41 1.5779874623896062 -0.70140553754352486 7.8200154228957901 196 134 117 1.1900430094537682 67 274 45 1098 25 727 18 97
165 0.95423517755281051 0.15043753430407353 8.2074867412477914 151 97 74 0.36459069415339179 18 622 25 3141 68 1249
38 0.65011133080009387 -0.75096420703464317 7.8811033415987435 161 112 72 1.6741533679559073 67 1267 92 1121 18 651 78 1518 13 1316 71 1364 25 3205 77 932 36 715 54 401 58 277 91 669 11 770 82 757 68 1382
164 1.179995751230615 -0.17116722139407103 7.9901716595694348 161 89 57 1.0154398929192479 18 635 25 3138 36 676 91 677
37 1.1852367546433455 -0.24629851437884509 8.2706451724807319 151 97 65 0.052025642718742 67 1258 92 1125
163 0.9540918124413188 -0.25989962179206766 8.2665145657120842 218 151 106 1.3950665700775513 71 1306 25 3135 74 730
36 0.91762486222744755 -0.69834583274618467 7.9372011704493488 212 168 141 1.1452706018102836 67 1245 92 1109 45 1857 86 2358 78 1485 71 1335 25 3128 77 918 36 668 54 348 58 234 91 670 35 501 17 1311 82 737 68 1338
162 0.71714848446469748 -0.49514695034945011 8.073080228358732 130 70 30 0.6856873434554851 78 1489 25 3131 77 858 54 321
35 1.3619244680042655 -0.98494261206257072 7.8548110198194081 200 157 128 1.3933213143259555 67 1244 92 1105 86 2369 78 1481 18 627 71 1361 25 3158 77 894 91 672 46 972 35 465 17 1257 82 735
160 0.13826429595261117 -0.92386842149087367 7.929691017629275 92 70 49 0.53997096640165076 71 1221 25 3085 91 347
33 0.36718430201028884 -0.65534013196567564 7.9328612076480143 46 43 30 1.0788229939179708 67 1225 92 1088 45 1839 86 2359 18 618 13 1293 78 1458 71 1301 77 857 36 627 58 205 74 698 82 709
158 0.095356325667067504 -0.98116432755799843 7.787929945690335 147 93 57 1.1879821040512839 67 1153 25 2750 36 336
31 1.5317720095721137 -0.98546030508158544 7.8919737809073469 189 143 103 1.9203650739565041 67 1221 92 1057 45 1837 25 3080 71 1288
154 1.3646081723497885 -0.62005648378120592 7.8625318808412992 201 197 198 0.92367215688183646 45 1782 92 1029 86 2271 78 1418 71 1072 18 529 13 1137 77 742 36 493 58 44 54 70 91 351 46 761 74 626 35 19 82 609 94 408
153 0.95105286691205981 -0.052568117505090176 8.29289705574549 251 212 187 1.970363305138525 78 1511 71 1370 79 1361
152 1.1920313607951585 -0.17852643234713883 8.0769809688083161 167 93 57 1.5115086523553947 18 636 71 1338 25 3137
151 0.8997872692745249 0.23979761122870119 8.3129585995647144 189 142 115 1.1080912581320908 18 574 71 1239 25 2990 91 358
149 0.31411374955489491 -0.67694367176448833 7.8464704062292343 39 28 16 0.63725406883916591 18 563 71 1089 91 98 36 489
147 1.208914015643042 -1.3028709511758023 7.3726024408403017 226 163 122 0.63210304186354471 18 519 71 729
49 0.47079326326940046 0.51459902782914979 8.1897401657496243 173 107 100 1.3750588201401055 92 842 45 1605 94 313
43 0.71418433216143584 0.48223008955097674 4.6928677458658008 7 11 14 0.03847561925014252 92 349 45 1310
40 0.46783581358852272 -0.57473265799795614 7.9843066527917577 128 72 49 1.11951737854009 67 685 45 323 13 158 78 857 79 380
39 1.5060870142714711 -0.14171721893254793 7.5947906240973158 188 127 81 1.4071681185300533 67 1283 92 1138
34 1.4994840793452306 -0.62865634910188595 7.8112938669249479 44 35 23 0.762339182406919 67 1227 92 1089 45 1840 18 616 78 1459 77 859 94 585
32 1.931365708887026 -0.81677059578893119 7.8542979034895195 80 91 93 1.7438408374255354 67 1224 92 1060 78 1455 79 1285
30 0.85046697452108444 0.24631255256988399 8.4580346928387495 181 146 124 0.63878525914771955 67 1197 92 1066 79 1320
13 -0.13092750969566841 -0.36567285806556338 7.0074338700705834 193 144 97 0.93384717276978413 67 877 92 541
140 1.9595557209567658 -2.5244224972253679 9.696550623581615 124 71 46 0.67106630921902422 13 1257 71 1013 82 657
12 1.5836297162483031 -0.58011989346385096 7.8079108360886398 168 141 124 0.77437714546615577 67 873 92 551 45 295 86 1801
139 0.83820747858785727 -0.62240884202807456 8.0595563804115891 130 70 38 0.7387982681248878 78 1296 71 1091 25 2768 82 617 68 1055
11 0.63142446571810718 -0.58886329321894226 8.0190517473291134 97 57 32 0.41057788134431916 67 872 92 702 78 1095 79 382
138 0.43712371952408896 -0.69037266835362698 7.9130981507843137 38 27 21 0.86474720261857074 78 1291 71 785 36 346 54 279 58 35 46 634 35 260 82 605 68 1046
10 0.50952612373778972 -0.58092342992648838 8.0004447160751386 143 95 66 0.35416785855547273 67 870 92 701 18 138 13 650
137 1.1309046822576558 -1.871204844194938 8.0693749023475494 126 74 50 0.38303126104287349 67 1240 79 1308 82 597
7 1.8889626278092311 -0.17426068916390752 6.9238375554474141 138 88 48 0.22574138682482109 67 708 92 722
264 0.87843821876889905 1.4785887887223386 6.7838676403856288 95 55 38 1.7146759397499016 36 746 68 1414
266 0.2788060013322563 3.9907685002948097 7.6354428658936158 0 0 0 0.054340572114010117 82 335 68 832
9 0.41516735967619545 1.2259844635600554 7.7864813072195371 74 56 42 0.072181830312239653 67 770 92 624
136 0.5005940046751054 -0.99311579980752551 8.0076861927158269 167 130 109 0.59606732138146146 13 1037 67 1057 82 505
265 0.54940685069650452 0.024506231984675983 1.4072144935811197 25 15 12 0.090623078882792113 36 34 68 877
8 1.9480496701601027 -0.147605876916651 6.9490970003732331 165 121 92 0.42612403559779655 67 710 92 275 18 148 13 655
